ply
format ascii 1.0
comment Created by Open3D
element vertex 1782
property double x
property double y
property double z
end_header
-0.228926 -0.16815 0.462193
-0.225397 -0.185185 0.455113
-0.228997 -0.167302 0.462597
-0.225007 -0.186447 0.454636
-0.228151 -0.170876 0.46109
-0.232109 -0.150379 0.469671
-0.232109 -0.150379 0.469671
-0.23082 -0.15591 0.467411
-0.231927 -0.149658 0.46987
-0.232077 -0.1477 0.470862
-0.228453 -0.164514 0.463878
-0.228453 -0.164514 0.463878
-0.23192 -0.14707 0.471093
-0.23192 -0.14707 0.471093
-0.228675 -0.163059 0.46454
-0.230652 -0.153325 0.468639
-0.224795 -0.180915 0.457078
-0.224795 -0.180915 0.457078
-0.229575 -0.157393 0.466867
-0.228233 -0.163611 0.46427
-0.228233 -0.163611 0.46427
-0.226785 -0.170278 0.461387
-0.226903 -0.169889 0.461649
-0.228601 -0.161458 0.465169
-0.228601 -0.161458 0.465169
-0.22525 -0.17739 0.458485
-0.226069 -0.172863 0.460368
-0.228105 -0.160487 0.465635
-0.230322 -0.149414 0.470191
-0.222524 -0.187351 0.454287
-0.222524 -0.187351 0.454287
-0.22919 -0.154996 0.467961
-0.230476 -0.14872 0.470601
-0.226069 -0.169995 0.461603
-0.223675 -0.180707 0.45719
-0.221771 -0.187681 0.45416
-0.225368 -0.170084 0.461601
-0.225203 -0.170572 0.461458
-0.225203 -0.170572 0.461458
-0.229174 -0.150284 0.469944
-0.229174 -0.150284 0.469944
-0.22321 -0.179343 0.457743
-0.226777 -0.161257 0.465235
-0.22909 -0.149622 0.470137
-0.225838 -0.165008 0.463755
-0.221138 -0.187515 0.454282
-0.22373 -0.175087 0.459626
-0.223078 -0.17765 0.458468
-0.224774 -0.168946 0.462175
-0.224774 -0.168946 0.462175
-0.22873 -0.149004 0.470337
-0.226738 -0.159096 0.466244
-0.223721 -0.173524 0.460093
-0.229261 -0.14656 0.471513
-0.226592 -0.159616 0.466046
-0.227736 -0.153829 0.468449
-0.227736 -0.153829 0.468449
-0.225588 -0.163061 0.464632
-0.225588 -0.163061 0.464632
-0.224874 -0.166103 0.463253
-0.224874 -0.166103 0.463253
-0.227746 -0.151876 0.469269
-0.228311 -0.148501 0.470696
-0.227471 -0.152681 0.468991
-0.22328 -0.172098 0.460923
-0.227599 -0.1492 0.470394
-0.224439 -0.164776 0.463932
-0.224312 -0.165266 0.463674
-0.220301 -0.184595 0.455598
-0.226257 -0.154682 0.468191
-0.225326 -0.158588 0.466616
-0.225326 -0.158588 0.466616
-0.223313 -0.167876 0.462713
-0.222827 -0.170127 0.461835
-0.224325 -0.162151 0.465067
-0.220912 -0.17857 0.458124
-0.22606 -0.152204 0.46923
-0.224833 -0.158187 0.466732
-0.224833 -0.158187 0.466732
-0.222485 -0.16926 0.462064
-0.222485 -0.16926 0.462064
-0.222579 -0.168843 0.46228
-0.223918 -0.161708 0.465178
-0.223918 -0.161708 0.465178
-0.224252 -0.16004 0.465951
-0.226097 -0.150803 0.469853
-0.218004 -0.189037 0.453835
-0.223983 -0.159568 0.466279
-0.225854 -0.149611 0.470378
-0.224918 -0.153702 0.468651
-0.22213 -0.167643 0.462883
-0.226968 -0.143391 0.473066
-0.222144 -0.167144 0.463022
-0.222689 -0.16409 0.46433
-0.222762 -0.163537 0.464556
-0.224757 -0.153255 0.468901
-0.223534 -0.158986 0.4664
-0.2249 -0.151106 0.469691
-0.222665 -0.162484 0.465042
-0.219982 -0.175606 0.459583
-0.225068 -0.148441 0.47081
-0.221065 -0.168597 0.462434
-0.220951 -0.169069 0.462272
-0.223123 -0.156052 0.467754
-0.22146 -0.163787 0.464531
-0.22146 -0.163787 0.464531
-0.223575 -0.152739 0.469125
-0.223574 -0.152737 0.469127
-0.218157 -0.179279 0.457935
-0.220619 -0.166903 0.463267
-0.219727 -0.17095 0.461456
-0.216063 -0.189164 0.453864
-0.219753 -0.170547 0.461688
-0.222951 -0.154135 0.468556
-0.223285 -0.152144 0.469374
-0.223285 -0.152144 0.469374
-0.22039 -0.166438 0.463435
-0.222004 -0.158117 0.466924
-0.217596 -0.179062 0.458151
-0.217596 -0.179062 0.458151
-0.219977 -0.166017 0.463599
-0.219977 -0.166017 0.463599
-0.221812 -0.155105 0.468277
-0.223628 -0.145546 0.472225
-0.21801 -0.173583 0.460465
-0.220835 -0.159062 0.466568
-0.219919 -0.163517 0.464772
-0.219919 -0.163517 0.464772
-0.219943 -0.162929 0.464907
-0.217885 -0.172516 0.46094
-0.214643 -0.188736 0.4542
-0.218259 -0.169448 0.462108
-0.217061 -0.175553 0.459684
-0.219583 -0.161964 0.46532
-0.218174 -0.16774 0.462985
-0.221518 -0.150515 0.47019
-0.220225 -0.156656 0.46767
-0.219426 -0.160291 0.466049
-0.217822 -0.168244 0.462734
-0.220349 -0.155326 0.468135
-0.222492 -0.144505 0.472857
-0.217032 -0.171768 0.461269
-0.220358 -0.154654 0.468468
-0.219332 -0.159725 0.466306
-0.219411 -0.159172 0.46654
-0.219474 -0.1585 0.466702
-0.219474 -0.1585 0.466702
-0.213439 -0.188763 0.4542
-0.217456 -0.167334 0.463232
-0.219172 -0.158067 0.467031
-0.218243 -0.162727 0.465127
-0.215398 -0.176128 0.459455
-0.21668 -0.169231 0.462288
-0.218835 -0.157498 0.467384
-0.218912 -0.15686 0.46756
-0.218912 -0.15686 0.46756
-0.219053 -0.1557 0.468109
-0.220759 -0.143343 0.473267
-0.220219 -0.145555 0.472379
-0.216288 -0.165737 0.464037
-0.214275 -0.175587 0.459823
-0.216817 -0.162461 0.465332
-0.215838 -0.166661 0.46351
-0.214162 -0.175264 0.460058
-0.214662 -0.17207 0.461304
-0.214684 -0.171689 0.461521
-0.214073 -0.174435 0.460234
-0.219098 -0.1486 0.471043
-0.216872 -0.15982 0.466504
-0.218886 -0.149196 0.47084
-0.217365 -0.156602 0.467849
-0.215692 -0.16424 0.464553
-0.215692 -0.16424 0.464553
-0.214812 -0.168661 0.462736
-0.213214 -0.176036 0.459582
-0.214751 -0.167767 0.463115
-0.214751 -0.167767 0.463115
-0.217405 -0.153883 0.468844
-0.212238 -0.180549 0.457757
-0.214208 -0.170109 0.462183
-0.217173 -0.153396 0.469098
-0.216532 -0.156792 0.467736
-0.216401 -0.157524 0.467484
-0.217297 -0.150817 0.470283
-0.213152 -0.171822 0.461409
-0.213152 -0.171822 0.461409
-0.217654 -0.148139 0.471283
-0.213668 -0.168887 0.462744
-0.213668 -0.168887 0.462744
-0.215264 -0.159482 0.466682
-0.214667 -0.161273 0.465788
-0.211818 -0.175125 0.460226
-0.212674 -0.170296 0.462221
-0.211694 -0.174317 0.460408
-0.21138 -0.173524 0.460678
-0.210286 -0.178982 0.458425
-0.210286 -0.178982 0.458425
-0.216168 -0.148162 0.471323
-0.211439 -0.171611 0.461717
-0.216435 -0.144981 0.472798
-0.210021 -0.177979 0.458846
-0.214392 -0.155369 0.468469
-0.214256 -0.155885 0.468203
-0.214815 -0.152621 0.469607
-0.210937 -0.172039 0.461495
-0.214724 -0.151922 0.469931
-0.211654 -0.167315 0.463541
-0.214238 -0.153305 0.469285
-0.214238 -0.153305 0.469285
-0.210168 -0.174851 0.460444
-0.212372 -0.162115 0.465659
-0.206995 -0.188906 0.454426
-0.212317 -0.16112 0.466202
-0.212337 -0.16054 0.466335
-0.211385 -0.165488 0.464327
-0.211385 -0.165488 0.464327
-0.211424 -0.16493 0.464507
-0.209664 -0.172924 0.461098
-0.210568 -0.168356 0.463166
-0.211137 -0.163466 0.465236
-0.208888 -0.174516 0.460518
-0.210884 -0.164022 0.464951
-0.211175 -0.162395 0.465629
-0.211782 -0.158815 0.467058
-0.211782 -0.158815 0.467058
-0.213112 -0.14987 0.4709
-0.211834 -0.156366 0.468105
-0.211834 -0.156366 0.468105
-0.21262 -0.152303 0.469858
-0.20807 -0.175705 0.460065
-0.210899 -0.160098 0.466363
-0.209961 -0.165083 0.464499
-0.207942 -0.175309 0.460255
-0.20957 -0.163156 0.46537
-0.208975 -0.165247 0.464518
-0.209506 -0.162064 0.465765
-0.20734 -0.173095 0.461195
-0.20555 -0.182247 0.45746
-0.205474 -0.181321 0.457917
-0.209996 -0.156672 0.468051
-0.209996 -0.156672 0.468051
-0.206268 -0.175731 0.460151
-0.209974 -0.154766 0.469025
-0.208902 -0.160003 0.466677
-0.196295 -0.226362 0.438842
-0.208653 -0.160502 0.466465
-0.210067 -0.152798 0.469794
-0.209774 -0.154115 0.469218
-0.206901 -0.168652 0.463082
-0.206901 -0.168652 0.463082
-0.205954 -0.173153 0.461287
-0.209909 -0.151463 0.470334
-0.208589 -0.15693 0.468044
-0.208198 -0.158864 0.46724
-0.208665 -0.155647 0.468625
-0.208117 -0.158195 0.46745
-0.208117 -0.158195 0.46745
-0.205906 -0.169231 0.462942
-0.209251 -0.151067 0.470656
-0.208584 -0.153002 0.46976
-0.208584 -0.153002 0.46976
-0.205336 -0.170499 0.462469
-0.208493 -0.152259 0.470048
-0.205449 -0.16748 0.463694
-0.206361 -0.16037 0.466714
-0.204563 -0.16934 0.462963
-0.204563 -0.16934 0.462963
-0.207027 -0.15317 0.469642
-0.205 -0.163241 0.465609
-0.205877 -0.158065 0.467672
-0.207216 -0.149949 0.471034
-0.204494 -0.163854 0.46531
-0.204957 -0.161067 0.466448
-0.202375 -0.173566 0.461212
-0.205711 -0.152225 0.470148
-0.203005 -0.164945 0.464929
-0.205368 -0.149889 0.471081
-0.2044 -0.15514 0.46902
-0.204323 -0.155149 0.469016
-0.204323 -0.155149 0.469016
-0.204409 -0.153791 0.469583
-0.202307 -0.162442 0.466028
-0.203018 -0.157907 0.467937
-0.201314 -0.167945 0.464072
-0.201361 -0.166998 0.464288
-0.201361 -0.166998 0.464288
-0.203029 -0.157371 0.468189
-0.20092 -0.166529 0.464356
-0.201159 -0.158017 0.467972
-0.201433 -0.156251 0.468616
-0.201849 -0.154224 0.469585
-0.20199 -0.152294 0.470251
-0.201928 -0.151702 0.470589
-0.201209 -0.155017 0.469262
-0.201623 -0.150863 0.470882
-0.201267 -0.152958 0.470067
-0.201267 -0.152958 0.470067
-0.198901 -0.164793 0.465237
-0.199184 -0.159033 0.467659
-0.198236 -0.162861 0.466011
-0.198236 -0.162861 0.466011
-0.199041 -0.158429 0.467974
-0.199041 -0.158429 0.467974
-0.197616 -0.164309 0.465517
-0.198418 -0.153286 0.470105
-0.197202 -0.154095 0.469804
-0.197276 -0.153372 0.470097
-0.195691 -0.153649 0.470287
-0.19562 -0.151639 0.470761
-0.192959 -0.155802 0.469178
-0.191877 -0.15763 0.468596
-0.191996 -0.155847 0.469404
-0.192725 -0.148507 0.472442
-0.190055 -0.153783 0.470269
-0.19 -0.152117 0.47109
-0.189064 -0.153895 0.470248
-0.188504 -0.152213 0.471094
-0.181255 -0.147903 0.473254
-0.163541 -0.227201 0.440133
-0.161931 -0.228802 0.439485
-0.316326 -0.213969 0.43454
-0.26459 -0.19528 0.447243
-0.26459 -0.19528 0.447243
-0.283165 -0.1315 0.478753
-0.281536 -0.136841 0.476184
-0.281641 -0.134928 0.477043
-0.28111 -0.136082 0.47645
-0.266691 -0.184361 0.452728
-0.267992 -0.169346 0.460252
-0.276817 -0.138378 0.475612
-0.255163 -0.212935 0.438907
-0.264951 -0.163205 0.463613
-0.265421 -0.160196 0.465122
-0.262585 -0.169112 0.460709
-0.263288 -0.164608 0.463054
-0.261165 -0.169698 0.460541
-0.261774 -0.166586 0.462102
-0.261165 -0.168224 0.461227
-0.261015 -0.167579 0.461722
-0.260366 -0.169231 0.460822
-0.259242 -0.173064 0.45909
-0.261746 -0.163763 0.463634
-0.260022 -0.169009 0.460953
-0.26155 -0.163402 0.463749
-0.26155 -0.163402 0.463749
-0.260168 -0.167908 0.461505
-0.255774 -0.182589 0.454347
-0.260374 -0.166021 0.462483
-0.260872 -0.163262 0.463826
-0.258765 -0.170185 0.460467
-0.262237 -0.157571 0.466693
-0.259084 -0.168649 0.461306
-0.259084 -0.168649 0.461306
-0.260917 -0.161698 0.464579
-0.260917 -0.161698 0.464579
-0.264322 -0.14965 0.470635
-0.259072 -0.168215 0.461403
-0.260698 -0.162131 0.464383
-0.26638 -0.141558 0.474551
-0.261579 -0.158161 0.466425
-0.264458 -0.147191 0.471883
-0.264687 -0.144606 0.473145
-0.257233 -0.170651 0.46031
-0.257541 -0.169475 0.460912
-0.264772 -0.142039 0.474487
-0.264772 -0.142039 0.474487
-0.261773 -0.152429 0.469357
-0.261773 -0.152429 0.469357
-0.253849 -0.179968 0.455711
-0.256423 -0.169071 0.461129
-0.257881 -0.163357 0.463944
-0.257881 -0.163357 0.463944
-0.258746 -0.160303 0.465638
-0.256796 -0.166407 0.462436
-0.256796 -0.166407 0.462436
-0.261744 -0.147751 0.471695
-0.261744 -0.147751 0.471695
-0.258074 -0.158334 0.466637
-0.260122 -0.150549 0.470322
-0.25671 -0.162903 0.464336
-0.257726 -0.158838 0.466458
-0.253226 -0.174967 0.45851
-0.25687 -0.161273 0.465105
-0.255903 -0.164271 0.46353
-0.255903 -0.164271 0.46353
-0.255048 -0.167277 0.462172
-0.254855 -0.168091 0.461844
-0.25469 -0.167737 0.46198
-0.260234 -0.146781 0.472298
-0.256753 -0.159532 0.466031
-0.256753 -0.159532 0.466031
-0.253276 -0.172146 0.459773
-0.255455 -0.164029 0.463737
-0.253298 -0.171741 0.459967
-0.250851 -0.180862 0.455564
-0.250851 -0.180862 0.455564
-0.255119 -0.164982 0.463317
-0.255772 -0.162409 0.464671
-0.260168 -0.146238 0.472604
-0.248392 -0.189192 0.451381
-0.253229 -0.170727 0.460563
-0.250555 -0.179692 0.456155
-0.250555 -0.179692 0.456155
-0.25545 -0.161194 0.465347
-0.255068 -0.161724 0.465063
-0.250323 -0.178809 0.456728
-0.253621 -0.165698 0.462943
-0.255663 -0.158453 0.46669
-0.253427 -0.166166 0.462769
-0.256825 -0.153521 0.469129
-0.252739 -0.168294 0.461792
-0.253526 -0.164945 0.463398
-0.253322 -0.165362 0.463152
-0.253606 -0.164554 0.463676
-0.25666 -0.153015 0.469262
-0.257118 -0.151215 0.470295
-0.253529 -0.163333 0.464175
-0.253529 -0.163333 0.464175
-0.247656 -0.184193 0.453906
-0.250824 -0.172393 0.459795
-0.250824 -0.172393 0.459795
-0.252999 -0.163831 0.463921
-0.250439 -0.172097 0.459965
-0.249137 -0.17587 0.458148
-0.252503 -0.162349 0.464838
-0.250519 -0.16925 0.461499
-0.249433 -0.173082 0.459539
-0.252419 -0.161868 0.465094
-0.25727 -0.143474 0.474109
-0.252477 -0.160503 0.465799
-0.255343 -0.149638 0.471235
-0.255343 -0.149638 0.471235
-0.252873 -0.158503 0.466839
-0.252873 -0.158503 0.466839
-0.248074 -0.176122 0.458108
-0.255454 -0.148434 0.471848
-0.248143 -0.17546 0.458456
-0.246694 -0.180252 0.456053
-0.248067 -0.175118 0.458603
-0.246833 -0.179586 0.456398
-0.245038 -0.185301 0.453353
-0.245038 -0.185301 0.453353
-0.24883 -0.171394 0.460365
-0.248062 -0.174145 0.459152
-0.246618 -0.17931 0.456526
-0.245242 -0.184079 0.45402
-0.251308 -0.161656 0.465233
-0.251308 -0.161656 0.465233
-0.249428 -0.167157 0.46251
-0.249428 -0.167157 0.46251
-0.245002 -0.183942 0.454376
-0.253753 -0.150559 0.470775
-0.253753 -0.150559 0.470775
-0.246847 -0.176422 0.458086
-0.246847 -0.176422 0.458086
-0.249345 -0.16678 0.462765
-0.251074 -0.160348 0.465959
-0.244966 -0.183042 0.45473
-0.255356 -0.143845 0.474055
-0.248424 -0.168918 0.461677
-0.244446 -0.183736 0.454397
-0.246478 -0.176119 0.458155
-0.249617 -0.163825 0.464217
-0.246918 -0.173606 0.459339
-0.244106 -0.184112 0.454259
-0.244261 -0.183461 0.454551
-0.252782 -0.151438 0.470363
-0.243951 -0.184788 0.454054
-0.25107 -0.157384 0.467548
-0.253734 -0.146709 0.472655
-0.242806 -0.187294 0.452756
-0.246485 -0.173001 0.459691
-0.249418 -0.161986 0.465165
-0.249418 -0.161986 0.465165
-0.248186 -0.166623 0.462913
-0.25077 -0.156848 0.467721
-0.245795 -0.175644 0.458535
-0.238719 -0.201957 0.445465
-0.241371 -0.191672 0.450568
-0.248335 -0.164947 0.463789
-0.249567 -0.160189 0.466103
-0.239498 -0.19775 0.447538
-0.244199 -0.180171 0.456374
-0.24346 -0.182196 0.455316
-0.24346 -0.182196 0.455316
-0.24685 -0.169274 0.461629
-0.246646 -0.169683 0.461344
-0.242461 -0.185609 0.453617
-0.250899 -0.153065 0.469736
-0.24416 -0.177973 0.457446
-0.253056 -0.144316 0.474113
-0.239282 -0.195313 0.448804
-0.239282 -0.195313 0.448804
-0.247481 -0.164202 0.464136
-0.251168 -0.150361 0.471039
-0.251168 -0.150361 0.471039
-0.250577 -0.1524 0.469991
-0.247167 -0.164695 0.463933
-0.247167 -0.164695 0.463933
-0.246855 -0.166106 0.46342
-0.246665 -0.166563 0.463162
-0.251203 -0.148371 0.471941
-0.239137 -0.19411 0.449456
-0.241164 -0.186378 0.453246
-0.245945 -0.167502 0.462598
-0.251116 -0.147796 0.472266
-0.24954 -0.153702 0.469379
-0.24954 -0.153702 0.469379
-0.229892 -0.228299 0.432645
-0.238651 -0.194781 0.449179
-0.246546 -0.164424 0.464072
-0.246297 -0.165439 0.46381
-0.242996 -0.17722 0.457789
-0.246836 -0.162555 0.465098
-0.246425 -0.163613 0.46454
-0.246558 -0.163106 0.46488
-0.246558 -0.163106 0.46488
-0.24697 -0.160683 0.466076
-0.241402 -0.181282 0.455788
-0.241198 -0.181682 0.455627
-0.249129 -0.151297 0.470697
-0.249129 -0.151297 0.470697
-0.250831 -0.144689 0.474003
-0.250822 -0.144702 0.474022
-0.250822 -0.144702 0.474022
-0.246593 -0.160272 0.46625
-0.242873 -0.174449 0.459269
-0.24648 -0.159767 0.466522
-0.24648 -0.159767 0.466522
-0.245019 -0.164734 0.464027
-0.245019 -0.164734 0.464027
-0.246538 -0.158169 0.467299
-0.247922 -0.152802 0.470006
-0.248275 -0.150873 0.471007
-0.242543 -0.172768 0.460228
-0.236716 -0.194488 0.44942
-0.249379 -0.14614 0.473347
-0.24632 -0.157658 0.467623
-0.24632 -0.157658 0.467623
-0.236705 -0.193979 0.449642
-0.241242 -0.176184 0.458513
-0.241108 -0.176553 0.458301
-0.240204 -0.179318 0.456887
-0.246787 -0.154155 0.469326
-0.241484 -0.174363 0.459353
-0.241484 -0.174363 0.459353
-0.238846 -0.183512 0.454867
-0.238846 -0.183512 0.454867
-0.246152 -0.155465 0.468715
-0.236291 -0.193147 0.450115
-0.242569 -0.168577 0.462287
-0.242569 -0.168577 0.462287
-0.241163 -0.173735 0.459729
-0.248669 -0.144977 0.473945
-0.236843 -0.190306 0.451602
-0.237681 -0.186865 0.453257
-0.243933 -0.162205 0.465413
-0.240125 -0.176732 0.458282
-0.236699 -0.189702 0.451806
-0.237861 -0.184788 0.454244
-0.246118 -0.153135 0.47
-0.238716 -0.180902 0.456356
-0.236138 -0.190225 0.451616
-0.244696 -0.156856 0.468109
-0.24479 -0.156287 0.468324
-0.24613 -0.15055 0.471375
-0.24613 -0.15055 0.471375
-0.244046 -0.158025 0.467571
-0.236831 -0.185552 0.453914
-0.236831 -0.185552 0.453914
-0.238867 -0.177653 0.457902
-0.238867 -0.177653 0.457902
-0.246301 -0.148582 0.472288
-0.246653 -0.145932 0.473608
-0.23875 -0.175912 0.458717
-0.238864 -0.175232 0.459099
-0.244809 -0.151879 0.470554
-0.240813 -0.167212 0.462996
-0.246515 -0.145286 0.473936
-0.245679 -0.148055 0.472594
-0.241178 -0.165443 0.464018
-0.244714 -0.151417 0.470864
-0.242244 -0.160537 0.466346
-0.242244 -0.160537 0.466346
-0.234551 -0.189594 0.452062
-0.233644 -0.192288 0.45068
-0.238562 -0.17358 0.460132
-0.238562 -0.17358 0.460132
-0.236142 -0.182391 0.455678
-0.244585 -0.149458 0.471955
-0.244585 -0.149458 0.471955
-0.2436 -0.152938 0.47013
-0.237419 -0.176902 0.458374
-0.238583 -0.17205 0.460775
-0.242366 -0.157264 0.468105
-0.240611 -0.163795 0.464874
-0.240425 -0.164285 0.464561
-0.240425 -0.164285 0.464561
-0.244849 -0.146871 0.473231
-0.235718 -0.182042 0.455759
-0.239626 -0.166626 0.463477
-0.237239 -0.175591 0.459182
-0.240615 -0.161837 0.465839
-0.232281 -0.19396 0.449977
-0.241849 -0.156155 0.468617
-0.235211 -0.181831 0.455993
-0.238397 -0.168926 0.462248
-0.238397 -0.168926 0.462248
-0.232065 -0.193669 0.450077
-0.232426 -0.191516 0.451136
-0.23836 -0.167756 0.463031
-0.23807 -0.16861 0.462531
-0.231966 -0.192138 0.450894
-0.235954 -0.176393 0.458595
-0.235954 -0.176393 0.458595
-0.242068 -0.152455 0.470522
-0.235046 -0.180013 0.457
-0.238208 -0.166015 0.463816
-0.235788 -0.175143 0.459386
-0.235788 -0.175143 0.459386
-0.235984 -0.173989 0.459838
-0.242085 -0.149956 0.471869
-0.242085 -0.149956 0.471869
-0.235825 -0.173693 0.460059
-0.23315 -0.183882 0.454993
-0.237936 -0.164712 0.46442
-0.240365 -0.154738 0.469453
-0.232711 -0.184164 0.454977
-0.234516 -0.176657 0.458583
-0.231904 -0.186763 0.453636
-0.232634 -0.183791 0.455129
-0.240379 -0.153516 0.470216
-0.230375 -0.192723 0.450876
-0.24045 -0.152141 0.470832
-0.24045 -0.152141 0.470832
-0.23241 -0.183468 0.455215
-0.23454 -0.174946 0.459481
-0.23454 -0.174946 0.459481
-0.235615 -0.170735 0.461581
-0.240134 -0.152789 0.470429
-0.240134 -0.152789 0.470429
-0.235712 -0.170294 0.46183
-0.23442 -0.175368 0.459332
-0.237934 -0.160917 0.466599
-0.237934 -0.160917 0.466599
-0.231455 -0.185681 0.454172
-0.231762 -0.184518 0.454865
-0.231482 -0.185079 0.454536
-0.234422 -0.173572 0.460268
-0.240145 -0.150222 0.471723
-0.234509 -0.172013 0.460889
-0.22901 -0.193519 0.450278
-0.237889 -0.158132 0.467851
-0.231217 -0.184515 0.454836
-0.234384 -0.171658 0.461185
-0.231356 -0.183672 0.455308
-0.228469 -0.194592 0.449753
-0.232988 -0.176299 0.458936
-0.2343 -0.170152 0.462062
-0.233975 -0.170962 0.461479
-0.236084 -0.162207 0.46592
-0.232195 -0.177117 0.458566
-0.232953 -0.173474 0.460369
-0.235387 -0.163804 0.465173
-0.239058 -0.148568 0.472668
-0.234009 -0.168498 0.462808
-0.231964 -0.175811 0.459293
-0.230092 -0.183265 0.455613
-0.235012 -0.16347 0.465445
-0.237482 -0.1527 0.470662
-0.237482 -0.1527 0.470662
-0.22544 -0.199584 0.447505
-0.230903 -0.177644 0.458356
-0.234851 -0.161981 0.466203
-0.234851 -0.161981 0.466203
-0.233906 -0.164982 0.464622
-0.229019 -0.184058 0.455307
-0.23885 -0.143453 0.475329
-0.234757 -0.159768 0.467246
-0.234757 -0.159768 0.467246
-0.234829 -0.159286 0.467456
-0.236686 -0.151707 0.471237
-0.237151 -0.149469 0.472296
-0.237449 -0.148144 0.472993
-0.237449 -0.148144 0.472993
-0.228659 -0.183511 0.455654
-0.232238 -0.167181 0.463654
-0.233338 -0.161685 0.466329
-0.233492 -0.16108 0.466635
-0.233492 -0.16108 0.466635
-0.233405 -0.160528 0.466856
-0.232103 -0.165274 0.464557
-0.232103 -0.165274 0.464557
-0.231205 -0.168184 0.463146
-0.229909 -0.173182 0.460742
-0.23449 -0.154709 0.469865
-0.233212 -0.159522 0.467393
-0.233014 -0.160088 0.46716
-0.229885 -0.17246 0.460965
-0.226688 -0.184936 0.454985
-0.232896 -0.157337 0.468633
-0.22713 -0.180298 0.457319
-0.22966 -0.169682 0.462428
-0.229458 -0.170162 0.462306
-0.231564 -0.161487 0.466579
-0.232874 -0.155518 0.469541
-0.229129 -0.170623 0.462093
-0.228608 -0.172706 0.461043
-0.224716 -0.1884 0.453264
-0.224697 -0.188095 0.453447
-0.224518 -0.18871 0.453089
-0.234395 -0.148628 0.472894
-0.234722 -0.147436 0.473589
-0.234722 -0.147436 0.473589
-0.229357 -0.168908 0.462917
-0.229109 -0.168522 0.463123
-0.229109 -0.168522 0.463123
-0.233736 -0.149659 0.472446
-0.23323 -0.151626 0.471545
-0.23292 -0.152391 0.471217
-0.23292 -0.152391 0.471217
-0.234385 -0.145455 0.474658
-0.232927 -0.151084 0.471863
-0.232927 -0.151084 0.471863
-0.232381 -0.153067 0.470915
-0.227979 -0.16952 0.462627
-0.232636 -0.150374 0.472026
-0.228817 -0.164936 0.465016
-0.228817 -0.164936 0.465016
-0.224169 -0.184162 0.455695
-0.224169 -0.184162 0.455695
-0.231196 -0.154525 0.470193
-0.224635 -0.18094 0.457078
-0.224635 -0.18094 0.457078
-0.228905 -0.162497 0.466172
-0.226901 -0.170597 0.462182
-0.231376 -0.151904 0.47147
-0.231376 -0.151904 0.47147
-0.22617 -0.173572 0.460939
-0.226128 -0.173112 0.460961
-0.230009 -0.156089 0.469409
-0.228712 -0.160452 0.467317
-0.231372 -0.149378 0.472747
-0.223523 -0.180764 0.457249
-0.223523 -0.180764 0.457249
-0.218817 -0.199264 0.448207
-0.229867 -0.153443 0.470716
-0.229947 -0.152911 0.470983
-0.225506 -0.170381 0.462339
-0.229997 -0.150933 0.47203
-0.229997 -0.150933 0.47203
-0.226178 -0.165435 0.464905
-0.228635 -0.15494 0.470068
-0.228635 -0.15494 0.470068
-0.220767 -0.187467 0.454066
-0.228212 -0.15636 0.469342
-0.224979 -0.169253 0.462966
-0.225116 -0.168429 0.463561
-0.225116 -0.168429 0.463561
-0.229599 -0.149802 0.472788
-0.22601 -0.163517 0.465909
-0.22601 -0.163517 0.465909
-0.222603 -0.177115 0.459085
-0.228016 -0.153934 0.47075
-0.226096 -0.161479 0.466964
-0.227335 -0.155999 0.469659
-0.224797 -0.165206 0.465112
-0.2302 -0.142676 0.476264
-0.228423 -0.149914 0.472629
-0.224621 -0.165699 0.464834
-0.226913 -0.155264 0.469953
-0.223747 -0.168639 0.463469
-0.218791 -0.188825 0.453478
-0.225881 -0.159088 0.468081
-0.225881 -0.159088 0.468081
-0.226854 -0.154762 0.470263
-0.223615 -0.168243 0.46369
-0.223095 -0.170431 0.462649
-0.224533 -0.163222 0.466075
-0.221835 -0.174187 0.46085
-0.226818 -0.152862 0.471255
-0.226818 -0.152862 0.471255
-0.224719 -0.160547 0.467389
-0.226896 -0.151461 0.47193
-0.225576 -0.156342 0.469557
-0.224343 -0.161242 0.467147
-0.224196 -0.161776 0.4669
-0.224196 -0.161776 0.4669
-0.224537 -0.160061 0.467722
-0.220328 -0.177455 0.459143
-0.220328 -0.177455 0.459143
-0.226739 -0.150322 0.472628
-0.22145 -0.17147 0.462159
-0.22145 -0.17147 0.462159
-0.223092 -0.162929 0.466305
-0.220019 -0.17578 0.459979
-0.220019 -0.17578 0.459979
-0.22413 -0.158281 0.468576
-0.225646 -0.151791 0.471802
-0.22561 -0.151223 0.472113
-0.221302 -0.168967 0.463405
-0.221163 -0.169404 0.463136
-0.225943 -0.149199 0.473224
-0.225943 -0.149199 0.473224
-0.22384 -0.157189 0.469251
-0.218066 -0.179469 0.45831
-0.220618 -0.168207 0.463877
-0.219942 -0.170868 0.462519
-0.217257 -0.181834 0.457104
-0.217257 -0.181834 0.457104
-0.22407 -0.152833 0.471496
-0.22407 -0.152833 0.471496
-0.221529 -0.161746 0.46714
-0.220534 -0.166006 0.465115
-0.224158 -0.150194 0.472803
-0.220315 -0.166453 0.464773
-0.220315 -0.166453 0.464773
-0.223605 -0.152209 0.471743
-0.222264 -0.156961 0.469505
-0.218828 -0.171414 0.46231
-0.22025 -0.164997 0.465447
-0.22464 -0.146317 0.474773
-0.221372 -0.160059 0.467919
-0.218575 -0.170985 0.462436
-0.218575 -0.170985 0.462436
-0.22211 -0.156318 0.469908
-0.220339 -0.1634 0.466233
-0.222532 -0.153693 0.471059
-0.219309 -0.167488 0.464321
-0.214307 -0.188623 0.453834
-0.214307 -0.188623 0.453834
-0.218006 -0.172792 0.461616
-0.217113 -0.17578 0.460202
-0.220372 -0.161365 0.467329
-0.221171 -0.157666 0.469176
-0.220162 -0.161984 0.467071
-0.210137 -0.204196 0.446007
-0.219217 -0.165693 0.465225
-0.216055 -0.178368 0.458973
-0.223572 -0.145229 0.475358
-0.217221 -0.172118 0.462138
-0.217221 -0.172118 0.462138
-0.221081 -0.155297 0.470436
-0.221063 -0.154765 0.47069
-0.220001 -0.15914 0.468495
-0.220001 -0.15914 0.468495
-0.2188 -0.163702 0.466237
-0.217785 -0.167727 0.464271
-0.218662 -0.163198 0.466418
-0.219781 -0.158672 0.46881
-0.21946 -0.158049 0.469057
-0.219717 -0.156868 0.469764
-0.217249 -0.164943 0.465579
-0.219463 -0.155062 0.4707
-0.22185 -0.144188 0.476069
-0.217263 -0.162926 0.466658
-0.214226 -0.175423 0.460442
-0.216162 -0.167094 0.464685
-0.215553 -0.169382 0.463465
-0.216435 -0.165663 0.465412
-0.219449 -0.152487 0.471877
-0.219981 -0.149374 0.473497
-0.215741 -0.165293 0.465583
-0.215741 -0.165293 0.465583
-0.213752 -0.173646 0.461412
-0.218116 -0.154591 0.470951
-0.215756 -0.163232 0.466661
-0.218458 -0.149799 0.473535
-0.21192 -0.17532 0.460698
-0.211769 -0.174598 0.461079
-0.213602 -0.166081 0.465318
-0.212048 -0.172333 0.462286
-0.211443 -0.173858 0.461447
-0.217089 -0.149002 0.473953
-0.211223 -0.172732 0.46201
-0.211598 -0.171131 0.462828
-0.214916 -0.156529 0.470118
-0.213176 -0.163646 0.466538
-0.211119 -0.172351 0.462284
-0.209782 -0.177858 0.459477
-0.210292 -0.175051 0.460932
-0.212319 -0.166406 0.465367
-0.213602 -0.160387 0.468218
-0.215013 -0.154031 0.471491
-0.215013 -0.154031 0.471491
-0.210924 -0.171582 0.462678
-0.210151 -0.174006 0.461544
-0.206669 -0.188843 0.454152
-0.210613 -0.171215 0.462853
-0.21176 -0.165897 0.465474
-0.211919 -0.164803 0.465968
-0.211803 -0.165378 0.465747
-0.214696 -0.15157 0.472674
-0.211331 -0.164504 0.466299
-0.210216 -0.169218 0.463916
-0.2101 -0.169722 0.463706
-0.209608 -0.1709 0.462994
-0.212548 -0.156495 0.470297
-0.209312 -0.170564 0.463259
-0.197374 -0.223333 0.437179
-0.208037 -0.175554 0.460829
-0.209713 -0.167508 0.464769
-0.20997 -0.165067 0.465862
-0.211022 -0.158459 0.469341
-0.209342 -0.165681 0.46569
-0.209961 -0.162608 0.467273
-0.20865 -0.168434 0.464396
-0.206203 -0.177978 0.459664
-0.210652 -0.157335 0.470017
-0.210652 -0.157335 0.470017
-0.209017 -0.164274 0.466433
-0.208114 -0.168081 0.464618
-0.208255 -0.166733 0.465251
-0.209486 -0.160637 0.468482
-0.210889 -0.153497 0.47201
-0.208757 -0.162746 0.4673
-0.210516 -0.154785 0.471288
-0.208902 -0.162208 0.467792
-0.211522 -0.149781 0.4737
-0.207708 -0.166372 0.465509
-0.207667 -0.165452 0.46601
-0.207667 -0.165452 0.46601
-0.209226 -0.157565 0.469913
-0.209226 -0.157565 0.469913
-0.208729 -0.158872 0.469377
-0.208729 -0.158872 0.469377
-0.206186 -0.169618 0.463956
-0.209448 -0.154322 0.471535
-0.209385 -0.150228 0.473704
-0.209385 -0.150228 0.473704
-0.208393 -0.152671 0.472667
-0.208376 -0.152698 0.472712
-0.207802 -0.153941 0.471982
-0.204238 -0.168452 0.464683
-0.2055 -0.161657 0.468123
-0.20311 -0.17168 0.463075
-0.20311 -0.17168 0.463075
-0.203899 -0.168103 0.464865
-0.208599 -0.146597 0.475523
-0.202515 -0.173885 0.461983
-0.204375 -0.162869 0.467572
-0.203811 -0.16451 0.466758
-0.203459 -0.165455 0.466335
-0.203459 -0.165455 0.466335
-0.202922 -0.167306 0.465252
-0.2052 -0.154536 0.47185
-0.203204 -0.163492 0.467326
-0.203692 -0.158558 0.469865
-0.202848 -0.161483 0.46826
-0.204811 -0.152756 0.472775
-0.201281 -0.166963 0.465554
-0.200998 -0.165154 0.466559
-0.200219 -0.161226 0.468597
-0.200219 -0.161226 0.468597
-0.199814 -0.159651 0.469485
-0.199394 -0.158564 0.470196
-0.199189 -0.154016 0.472358
-0.197958 -0.155446 0.471721
-0.197957 -0.154829 0.472052
-0.195195 -0.163436 0.467822
-0.196553 -0.155605 0.471819
-0.196523 -0.1543 0.472408
-0.196523 -0.1543 0.472408
-0.194317 -0.161492 0.46895
-0.194289 -0.161063 0.469245
-0.194148 -0.153806 0.472767
-0.193317 -0.157116 0.471165
-0.192572 -0.15832 0.470668
-0.16256 -0.226159 0.437937
-0.16256 -0.226159 0.437937
-0.160932 -0.227744 0.437282
66.6815 49.5594 -112.791
70.7665 32.8583 -119.843
71.0971 34.5441 -120.42
71.1413 33.8526 -120.507
69.369 33.2405 -117.704
69.4724 33.6463 -117.966
69.3445 34.7546 -118.927
71.1081 34.733 -122.277
70.3625 35.1799 -121.091
67.755 34.3287 -117.803
68.8979 46.1583 -120.245
67.2922 41.4923 -117.925
67.2417 41.536 -118.099
67.1691 43.3107 -118.029
68.3238 42.1988 -120.24
66.8904 43.5086 -118.119
66.5892 48.8388 -117.697
66.8096 42.554 -118.104
66.3391 40.5562 -117.285
66.3391 40.5562 -117.285
69.2002 34.7769 -122.469
66.9861 40.6954 -118.628
66.9861 40.6954 -118.628
68.2605 45.0885 -120.909
68.2605 45.0885 -120.909
67.5432 45.319 -119.669
66.9293 43.5464 -118.629
68.047 45.447 -120.612
68.8542 46.5693 -122.282
66.0897 44.5397 -117.625
66.0227 43.9613 -117.521
67.9003 44.8015 -120.957
65.9504 39.6566 -117.546
65.708 40.7707 -117.198
65.708 40.7707 -117.198
66.7431 41.5596 -119.088
66.0401 39.9627 -117.937
66.7491 45.5474 -119.216
65.983 49.0226 -117.857
67.7366 41.6114 -121.021
67.5199 37.5957 -120.667
67.1247 40.3677 -120.192
68.2164 37.2906 -122.153
66.7914 45.1446 -119.665
68.1994 44.9189 -122.216
66.4128 45.4046 -119.083
65.7419 44.7499 -117.928
67.9375 39.5849 -122.002
63.8857 60.283 -114.822
66.8437 47.453 -120.165
67.4042 40.9381 -121.19
66.2103 41.8394 -119.286
67.1266 42.5702 -120.964
67.1266 42.5702 -120.964
65.575 44.7549 -118.23
66.4875 44.2769 -120.221
65.7199 40.339 -118.984
66.4105 42.1763 -120.289
67.8567 39.3156 -122.923
68.3395 37.9606 -123.836
67.2106 40.6997 -121.846
66.3736 41.7133 -120.369
67.6456 36.8425 -122.696
66.2627 43.681 -120.356
66.2107 40.9947 -120.308
65.9496 41.0134 -119.884
65.9496 41.0134 -119.884
67.8393 38.2948 -123.338
66.5699 45.2982 -121.018
66.6397 48.0869 -121.147
66.6397 48.0869 -121.147
65.5783 42.1597 -119.248
65.9984 44.8024 -120.024
66.8234 43.2595 -121.543
66.7499 42.4127 -121.428
66.6467 50.8257 -121.251
66.7094 42.8252 -121.441
68.6664 46.3363 -125.045
65.1437 41.6174 -118.685
68.0352 48.8396 -124.002
68.0352 48.8396 -124.002
65.0734 43.8681 -118.659
65.994 38.2883 -120.561
66.4348 44.7998 -121.38
66.9838 36.8684 -122.402
67.0393 41.5764 -122.547
66.7334 43.6673 -122.035
65.4655 42.9819 -119.742
65.5646 48.4275 -119.934
68.8895 46.6762 -126.049
66.616 44.4045 -121.893
66.4034 43.2557 -121.575
64.7985 42.0819 -118.64
64.7985 42.0819 -118.64
67.2481 43.9618 -123.171
66.6702 39.2302 -122.131
66.1189 45.971 -121.19
65.8731 45.3278 -120.931
66.2756 45.9735 -121.702
64.2924 48.591 -118.23
65.1257 37.5822 -119.789
66.0226 45.4253 -121.438
66.7921 40.2709 -122.871
66.6933 39.7004 -122.784
66.4837 46.9846 -122.424
66.8624 46.8159 -123.165
65.7877 37.4193 -121.209
65.1667 43.7589 -120.108
65.7506 44.4578 -121.277
64.7301 48.3514 -119.422
64.2989 47.7838 -118.711
65.8764 41.3179 -121.792
65.8764 41.3179 -121.792
65.068 44.8599 -120.298
65.068 44.8599 -120.298
66.0258 38.1238 -122.099
68.8697 40.2288 -127.406
64.2504 42.2067 -118.854
67.7895 40.8268 -125.43
64.5717 47.239 -119.527
65.2634 46.1231 -120.815
64.6656 44.2235 -119.79
65.0358 45.4516 -120.53
63.7728 46.4281 -118.213
65.4886 43.0215 -121.432
64.03 49.3889 -118.723
64.8818 48.991 -120.324
65.6174 46.7767 -121.796
65.5053 43.9596 -121.67
65.1379 41.9148 -121.023
64.6177 43.5272 -120.082
65.3379 38.7996 -121.429
65.3379 38.7996 -121.429
64.5664 48.3072 -120.009
63.5299 42.3013 -118.138
65.0347 49.6857 -120.942
63.978 48.1541 -119.084
65.3785 44.5161 -121.702
64.5806 46.2065 -120.216
64.0541 47.2462 -119.303
65.6138 43.116 -122.23
64.5368 48.9191 -120.215
66.6983 35.9489 -124.272
64.8853 45.6933 -120.911
64.8853 45.6933 -120.911
64.7113 48.6699 -120.581
64.9564 45.8912 -121.109
65.3398 40.9827 -121.844
66.9412 40.3826 -124.94
64.3958 49.121 -120.177
65.8185 38.1036 -122.858
65.4194 43.8031 -122.162
66.1169 37.85 -123.479
63.8992 48.0116 -119.324
65.4113 49.4765 -122.158
66.3377 47.4492 -123.898
65.2631 45.6188 -121.894
65.0981 43.7537 -121.608
64.5282 45.3594 -120.545
64.5282 45.3594 -120.545
66.1158 41.3998 -123.53
67.3707 41.134 -125.935
66.9669 43.0323 -125.278
64.2066 52.2781 -120.119
64.7808 48.6367 -121.274
65.9531 47.9059 -123.516
63.609 43.6729 -119.139
67.7285 41.8207 -126.873
65.6867 40.3957 -123.054
63.1783 43.5363 -118.387
65.0973 49.0512 -121.994
63.3424 51.5626 -118.746
64.6989 39.4953 -121.316
64.336 46.9408 -120.674
66.8377 38.1252 -125.415
65.8401 39.59 -123.586
65.8401 39.59 -123.586
64.1882 42.6471 -120.593
64.0693 48.0075 -120.368
65.439 48.9198 -122.947
65.439 48.9198 -122.947
65.663 39.981 -123.389
66.6238 44.8503 -125.207
66.6656 38.496 -125.308
64.8418 48.7327 -121.877
66.2547 44.7652 -124.554
64.4439 44.9816 -121.213
63.3113 51.4578 -119.123
65.9688 42.4078 -124.182
65.9688 42.4078 -124.182
64.2733 50.1377 -120.991
65.1304 40.6985 -122.63
62.4552 62.0892 -117.562
66.1233 47.5522 -124.509
66.3577 54.1968 -124.978
66.2252 37.2271 -124.764
64.4432 39.7428 -121.443
64.4432 39.7428 -121.443
63.3892 49.5415 -119.457
64.3551 42.9795 -121.353
64.3551 42.9795 -121.353
66.3936 38.969 -125.247
63.9935 46.7394 -120.742
64.8945 46.208 -122.447
64.8945 46.208 -122.447
66.4953 38.6267 -125.507
64.1081 42.4425 -121.044
64.1081 42.4425 -121.044
64.1902 42.6693 -121.208
64.7674 44.4601 -122.367
64.7674 44.4601 -122.367
64.7244 45.7024 -122.318
66.2736 38.3846 -125.3
64.0219 48.2964 -121.112
65.2278 47.0936 -123.404
64.6312 43.9034 -122.29
65.3197 39.7036 -123.626
66.8143 38.5604 -126.478
66.8143 38.5604 -126.478
64.8451 40.5952 -122.762
64.8451 40.5952 -122.762
61.8128 61.6046 -117.006
65.2466 46.9202 -123.551
65.3357 42.5127 -123.74
64.5848 46.3624 -122.375
64.5848 46.3624 -122.375
65.0582 45.9909 -123.314
64.8993 42.1137 -123.041
64.8993 42.1137 -123.041
62.7368 43.1848 -119.048
63.4844 47.2306 -120.461
65.0557 41.7872 -123.532
64.7577 39.9471 -122.977
65.8512 39.0136 -125.101
65.8512 39.0136 -125.101
65.8542 40.0455 -125.135
65.5328 41.5985 -124.524
62.7865 51.655 -119.333
65.4622 38.3845 -124.466
65.3299 41.8546 -124.231
65.3299 41.8546 -124.231
64.0862 49.9857 -121.864
65.1247 41.5502 -123.862
63.5929 49.0019 -120.991
64.7103 37.8079 -123.162
64.8215 47.3916 -123.361
66.019 37.6394 -125.688
65.9498 46.4206 -125.603
65.229 40.7949 -124.281
65.1413 47.2289 -124.129
63.1829 50.8363 -120.429
63.5987 48.9334 -121.281
63.5987 48.9334 -121.281
65.1131 41.1709 -124.21
64.1935 40.0525 -122.507
66.262 46.1013 -126.469
66.262 46.1013 -126.469
64.0927 51.5561 -122.331
65.2909 47.0926 -124.645
65.9665 38.4887 -125.962
62.6261 49.299 -119.571
64.0656 43.2163 -122.341
63.4614 42.2519 -121.288
63.9097 47.0931 -122.137
63.62 51.0685 -121.6
64.9857 42.1004 -124.242
65.8785 40.584 -125.981
66.0066 41.0973 -126.245
63.5813 49.24 -121.653
64.1378 42.6205 -122.738
63.3064 51.8984 -121.178
62.7767 47.2528 -120.214
62.7767 47.2528 -120.214
66.6848 49.6404 -127.735
63.4625 40.7278 -121.616
64.1147 40.9918 -122.904
63.4884 49.4734 -121.763
63.9245 46.5142 -122.611
63.9245 46.5142 -122.611
63.4239 49.7702 -121.733
63.4239 49.7702 -121.733
62.8573 51.0638 -120.645
66.1992 39.9629 -127.154
65.9811 40.0221 -126.743
66.3546 50.4729 -127.459
64.0913 47.4436 -123.16
65.853 47.17 -126.593
64.8655 38.8453 -124.783
64.2081 47.164 -123.59
63.4634 42.4917 -122.178
66.2937 39.0989 -127.686
62.9958 43.8112 -121.337
66.4778 41.1789 -128.157
63.9234 42.4201 -123.283
63.9234 42.4201 -123.283
63.9886 42.1359 -123.519
64.3981 42.0649 -124.353
64.6526 49.7423 -124.894
63.9573 49.4548 -123.56
64.0882 42.0861 -123.864
64.4775 39.4268 -124.627
64.259 41.8621 -124.201
66.0297 41.5088 -127.684
64.7913 46.7775 -125.309
63.7476 44.8452 -123.308
65.0539 42.2495 -125.843
65.1427 44.3916 -126.048
65.4175 39.2714 -126.663
63.8895 49.4224 -123.721
65.1012 45.3188 -126.106
64.2588 47.5898 -124.496
66.7168 41.8382 -129.355
66.7168 41.8382 -129.355
66.3878 41.6376 -128.725
66.3878 41.6376 -128.725
63.5357 42.7827 -123.209
63.8767 42.8876 -123.898
65.1236 42.1006 -126.421
64.814 41.5075 -125.842
63.4985 45.0706 -123.354
63.4985 45.0706 -123.354
63.6053 44.8061 -123.723
64.5874 45.8003 -125.681
62.3574 51.7256 -121.359
64.0344 40.6043 -124.68
64.0344 40.6043 -124.68
65.8011 41.486 -128.137
66.1103 42.1321 -128.76
64.2935 38.5553 -125.376
62.6193 49.0651 -122.14
63.7121 49.8325 -124.319
63.4233 48.1666 -123.881
63.4233 48.1666 -123.881
63.3299 46.7083 -123.741
63.5691 37.2381 -124.236
62.9173 45.1814 -123.033
62.9173 45.1814 -123.033
63.7172 44.1836 -124.614
62.3954 40.2168 -122.086
64.345 44.3441 -125.948
65.975 43.9271 -129.194
64.3183 53.8479 -125.965
64.2903 41.0781 -125.943
62.7356 50.6001 -122.884
64.1716 39.5324 -125.727
62.8265 49.6842 -123.255
64.1374 46.5398 -125.852
63.3518 47.3258 -124.31
63.1336 47.2894 -123.882
64.6017 46.7321 -126.767
64.5062 42.3273 -126.658
64.9002 43.9185 -127.439
64.9002 43.9185 -127.439
64.0453 45.1359 -125.846
64.0453 45.1359 -125.846
62.5269 45.0521 -122.877
63.2771 42.6972 -124.392
64.1909 48.6463 -126.188
63.2066 46.8561 -124.273
61.863 49.5304 -121.637
66.1908 40.3342 -130.174
65.3441 39.8277 -128.531
63.6704 46.7918 -125.375
63.2168 46.3662 -124.588
64.5129 39.6506 -127.218
64.947 40.2045 -128.075
63.4818 45.2553 -125.23
62.8197 47.5978 -123.92
64.6453 39.387 -127.581
63.7598 46.4624 -125.842
63.3691 46.064 -125.136
63.4498 40.3777 -125.358
64.4497 39.1686 -127.36
61.9361 53.2663 -122.372
62.6591 45.8664 -123.818
63.9933 46.4313 -126.479
62.1628 52.3188 -122.868
62.1566 53.3737 -122.885
64.0701 50.0814 -126.68
63.1757 48.2556 -124.946
63.1757 48.2556 -124.946
64.3295 50.2152 -127.307
62.3673 46.5057 -123.441
64.3457 42.1469 -127.373
61.8994 38.6947 -122.574
63.6371 50.0476 -126.002
61.7931 53.3363 -122.375
62.5953 45.139 -124.008
63.3404 48.062 -125.582
63.3404 48.062 -125.582
63.9712 44.5308 -126.873
64.4728 41.5052 -128.025
64.4728 41.5052 -128.025
63.243 42.4274 -125.693
61.4668 47.4667 -122.159
61.1309 55.39 -121.499
63.0724 48.5955 -125.392
64.7576 44.5383 -128.762
64.6356 41.4974 -128.601
63.0308 44.5168 -125.42
64.4088 40.9397 -128.208
64.4088 40.9397 -128.208
61.4178 45.1134 -122.249
62.5043 45.4947 -124.44
62.6085 47.0663 -124.749
64.0908 43.6733 -127.787
67.6488 40.6661 -134.892
62.9781 42.7781 -125.599
63.6211 40.8256 -126.908
62.9209 50.5423 -125.504
65.0499 40.6312 -129.836
63.901 49.5528 -127.578
62.9768 44.3682 -125.757
62.2387 47.4343 -124.352
62.2387 47.4343 -124.352
62.886 48.8882 -125.683
62.2927 50.1316 -124.658
64.5032 44.9247 -129.132
61.8562 46.767 -123.831
61.8562 46.767 -123.831
63.5411 43.8944 -127.218
63.5411 43.8944 -127.218
62.7044 43.5071 -125.546
63.7051 51.5089 -127.556
62.9158 46.3244 -126.083
62.9158 46.3244 -126.083
63.1184 43.4844 -126.504
63.1629 49.8379 -126.595
65.1443 53.1541 -130.597
64.3987 42.534 -129.273
62.9856 43.1526 -126.486
63.8152 43.9063 -128.178
63.0569 47.3947 -126.683
63.5322 40.0604 -127.666
62.1595 50.7714 -124.903
62.6156 44.2193 -125.987
62.6695 47.5956 -126.175
63.6524 43.2099 -128.265
63.6524 43.2099 -128.265
61.5702 46.7001 -124.096
62.6165 42.3469 -126.216
62.2694 49.2718 -125.559
58.6496 62.9428 -118.23
61.9171 49.3432 -124.853
62.4489 52.6717 -126.001
63.345 44.0636 -127.849
64.1739 44.8077 -129.528
63.079 43.5232 -127.346
63.079 43.5232 -127.346
61.3873 47.1487 -123.932
62.8017 52.7313 -126.843
62.8017 52.7313 -126.843
59.9233 49.4401 -121.031
63.3672 53.12 -128.038
63.4529 53.4193 -128.233
60.8576 48.0733 -122.998
64.818 40.749 -131.02
62.6253 41.7055 -126.588
63.6827 38.9283 -128.803
62.9422 41.7012 -127.306
61.6853 45.2573 -124.796
60.4999 43.3361 -122.415
63.7042 43.939 -128.936
63.0799 46.4645 -127.725
63.0799 46.4645 -127.725
61.1307 44.7574 -123.784
63.8213 41.5286 -129.263
63.8213 41.5286 -129.263
63.3241 41.4604 -128.319
63.3241 41.4604 -128.319
60.1792 51.2325 -122.01
63.7066 41.3545 -129.279
63.7066 41.3545 -129.279
64.6684 42.6243 -131.26
64.6684 42.6243 -131.26
61.6888 52.1173 -125.252
60.9604 45.407 -123.932
62.6325 51.4867 -127.408
62.6325 51.4867 -127.408
62.8931 45.3889 -128.022
62.8931 45.3889 -128.022
61.9698 44.2815 -126.215
63.8137 42.5052 -130.017
65.1436 50.072 -132.757
62.9187 43.2452 -128.318
62.7691 45.1235 -128.058
61.5044 46.3139 -125.498
61.7005 43.6929 -125.932
61.7005 43.6929 -125.932
61.3451 47.3753 -125.229
63.6959 41.8666 -130.043
63.6959 41.8666 -130.043
62.4044 47.8471 -127.42
62.1456 46.335 -127.057
63.5212 43.1614 -129.883
63.327 44.6456 -129.611
62.9743 40.7059 -128.929
62.7762 48.8108 -128.577
62.6983 47.7732 -128.535
62.7798 43.2491 -128.799
62.6426 41.8801 -128.547
61.5418 46.4186 -126.364
62.0934 49.0264 -127.512
62.7387 47.4847 -128.869
62.4486 43.2815 -128.281
61.4284 46.6426 -126.2
61.4284 46.6426 -126.2
60.8616 48.9073 -125.088
63.8044 45.4537 -131.222
61.2499 47.3799 -125.976
61.8413 45.2943 -127.328
61.8413 45.2943 -127.328
62.2214 42.4575 -128.167
62.2214 42.4575 -128.167
62.7436 42.5777 -129.254
62.7436 42.5777 -129.254
60.908 45.7059 -125.475
60.8969 53.3367 -125.49
61.0487 50.7539 -125.837
61.0487 50.7539 -125.837
61.9825 46.4122 -127.803
61.9825 46.4122 -127.803
59.8544 46.7893 -123.412
63.1258 40.4213 -130.183
64.5661 42.1471 -133.166
62.8639 42.5538 -129.689
61.7397 45.7269 -127.558
60.6542 46.5381 -125.367
62.627 42.1206 -129.507
62.7963 41.8059 -129.9
62.1634 47.3196 -128.585
62.1634 47.3196 -128.585
62.0857 44.3913 -128.44
63.2575 44.1087 -131.06
61.6217 48.8035 -127.675
61.9235 45.5675 -128.34
61.0023 45.0675 -126.468
63.2961 41.5965 -131.244
62.3509 41.407 -129.288
61.206 49.2455 -126.936
61.6956 46.5552 -127.99
59.5728 51.4839 -123.621
60.7287 46.6831 -126.038
60.7287 46.6831 -126.038
59.849 50.651 -124.217
63.0496 44.4796 -130.921
61.3058 46.178 -127.314
63.247 41.2545 -131.396
63.3542 45.8937 -131.672
63.3542 45.8937 -131.672
62.8922 42.4401 -130.929
62.8922 42.4401 -130.929
62.6971 42.1365 -130.607
62.6971 42.1365 -130.607
61.5882 46.8699 -128.34
62.1933 44.5091 -129.627
62.7968 41.9781 -130.89
62.2158 43.3415 -129.774
62.3837 44.8981 -130.138
60.1405 43.4531 -125.467
59.2303 51.5105 -123.603
61.9414 49.961 -129.276
61.9414 49.961 -129.276
64.3775 42.7194 -134.435
62.1605 47.005 -129.831
62.558 47.1869 -130.75
61.7489 47.7327 -129.059
62.4938 49.6619 -130.649
61.148 52.0802 -127.839
61.4647 45.2211 -128.537
61.5388 47.3487 -128.763
60.7 44.4039 -127.126
62.8428 42.3415 -131.692
62.5371 41.9837 -131.15
62.28 47.6175 -130.635
62.8227 48.1995 -131.8
62.6084 51.2972 -131.357
61.1451 47.9378 -128.362
61.7893 44.6673 -129.791
60.3371 47.9866 -126.759
62.684 40.7455 -131.713
63.7631 45.9557 -134.032
59.2451 49.9706 -124.581
61.8924 50.3784 -130.174
61.623 42.8023 -129.639
61.6208 46.7133 -129.706
60.8346 47.4384 -128.08
60.8789 47.3647 -128.237
61.7816 42.5952 -130.197
62.7117 40.441 -132.17
62.7176 43.4627 -132.211
62.7176 43.4627 -132.211
62.5098 47.3166 -131.794
60.3459 48.5636 -127.256
61.4567 43.8707 -129.622
61.6403 52.5894 -130.014
61.058 51.8937 -128.819
61.058 51.8937 -128.819
61.0725 50.3858 -128.886
61.0725 50.3858 -128.886
61.1275 45.8686 -129.061
61.3532 46.4134 -129.647
61.3532 46.4134 -129.647
62.6654 42.0366 -132.44
60.8471 50.0527 -128.604
61.9801 42.2521 -131.046
61.4754 43.4604 -130.093
61.9347 46.4704 -131.137
61.2303 44.3348 -129.674
63.3102 45.7048 -134.146
62.1433 46.1633 -131.76
61.1672 46.7725 -129.714
60.5106 49.8316 -128.317
60.908 49.3866 -129.305
59.9324 42.7813 -127.378
61.5182 46.5597 -130.778
61.5182 46.5597 -130.778
60.2386 49.6362 -128.057
60.4655 49.9879 -128.636
61.5547 47.4523 -130.996
61.0561 47.2595 -130.02
61.847 48.9034 -131.747
61.847 48.9034 -131.747
61.1778 43.0177 -130.417
59.6741 50.6937 -127.259
63.279 46.029 -134.976
60.851 42.6487 -129.809
60.4032 44.1278 -128.87
60.926 44.1321 -129.988
60.6311 50.6369 -129.357
62.1958 46.6009 -132.777
61.4851 43.9362 -131.678
61.9695 44.6959 -132.714
60.16 43.2269 -128.909
60.2502 47.1369 -129.13
60.0849 51.3296 -128.791
60.0223 48.7516 -128.696
60.0223 48.7516 -128.696
60.1653 44.6462 -129.042
59.7867 49.3434 -128.321
59.7867 49.3434 -128.321
61.0936 43.2027 -131.257
58.0921 47.0443 -124.798
60.7999 42.6165 -130.77
61.5539 47.27 -132.392
62.163 41.1688 -133.774
59.9707 51.7554 -129.041
59.9707 51.7554 -129.041
59.9955 46.4435 -129.201
59.3427 48.6917 -127.799
61.5795 47.199 -132.649
61.5795 47.199 -132.649
62.5154 49.2166 -134.684
60.97 48.8649 -131.379
61.8256 43.2564 -133.313
61.9509 42.3405 -133.717
61.5347 42.4654 -132.865
60.7202 41.1233 -131.119
62.6584 49.9206 -135.308
60.3891 47.5414 -130.435
60.6611 43.6557 -131.059
60.6313 46.5301 -131.1
60.4506 49.2001 -130.741
60.4506 49.2001 -130.741
61.2802 46.5371 -132.607
61.5159 46.2446 -133.294
59.9025 45.3897 -129.808
60.5886 41.6642 -131.338
61.0564 42.6326 -132.446
61.748 42.9542 -134.052
59.9059 47.4583 -130.069
59.9059 47.4583 -130.069
59.7879 43.0951 -129.879
60.2467 44.5942 -131.028
61.0211 45.5593 -132.76
59.017 48.7445 -128.732
61.4448 43.4718 -134.063
59.0323 46.8029 -128.998
59.2998 47.3407 -129.62
58.9668 48.5799 -128.935
60.4122 40.325 -132.339
61.5949 41.3489 -134.994
59.7313 48.9465 -130.916
60.3721 43.8632 -132.344
60.0805 49.1327 -131.797
59.5871 50.4888 -130.751
60.3545 47.3577 -132.49
60.1807 42.6736 -132.119
59.8695 49.9277 -131.471
59.8695 49.9277 -131.471
59.9415 47.5058 -131.639
59.5415 44.7814 -130.786
60.9828 43.7282 -133.97
59.9802 48.8773 -131.818
59.9802 48.8773 -131.818
59.4733 45.5224 -130.815
59.3739 43.9073 -130.615
59.6564 49.4739 -131.238
62.292 47.3792 -137.157
58.2372 47.4327 -128.238
59.7025 46.8615 -131.512
59.1022 46.2329 -130.237
60.6025 47.2291 -133.56
59.5845 44.0102 -131.33
59.5845 44.0102 -131.33
58.8088 53.8718 -129.707
60.472 42.7495 -133.421
58.9535 48.5828 -130.247
58.4937 45.6022 -129.31
59.7259 46.25 -132.129
60.4254 45.4504 -133.696
60.4254 45.4504 -133.696
59.3401 48.7299 -131.319
59.572 48.6366 -132.115
59.5948 45.3889 -132.265
59.1269 46.6041 -131.525
61.8969 44.4765 -137.787
61.8969 44.4765 -137.787
59.8533 43.6992 -133.35
59.217 46.9674 -132.032
59.049 47.7574 -131.695
58.8945 50.9366 -131.543
59.5969 52.729 -133.128
59.2064 52.5217 -132.305
58.1846 43.0642 -130.073
60.7664 45.4479 -135.855
60.7664 45.4479 -135.855
59.1613 46.5957 -132.327
58.8209 47.5948 -131.586
60.1559 48.2601 -134.686
61.6105 48.4048 -137.951
60.3679 48.619 -135.176
59.2329 43.7421 -132.683
60.6092 44.1603 -135.916
60.6092 44.1603 -135.916
59.0996 42.3381 -132.737
59.5208 47.7663 -133.673
59.6808 50.3183 -134.052
59.8351 47.7547 -134.544
59.8351 47.7547 -134.544
58.2516 50.4719 -130.979
59.0736 44.5642 -132.971
59.0736 44.5642 -132.971
58.3723 48.1647 -131.392
60.1137 44.9465 -135.422
58.3674 48.1066 -131.603
60.2183 44.8889 -135.875
61.4939 45.3879 -138.767
61.4939 45.3879 -138.767
60.362 44.383 -136.384
59.3942 46.9697 -134.201
59.8193 47.7015 -135.197
60.3088 44.1488 -136.41
58.8953 46.3042 -133.352
59.1417 44.4359 -134.213
57.7871 42.3646 -131.296
58.9644 43.9927 -134.12
58.5902 46.7603 -133.439
58.5902 46.7603 -133.439
57.855 47.8084 -131.898
58.2397 45.8863 -132.933
58.8499 49.1384 -134.367
58.4334 43.6601 -133.727
57.7969 43.6421 -132.285
60.2007 44.189 -137.843
58.2817 43.8644 -133.528
58.9972 43.7713 -135.291
58.9972 43.7713 -135.291
57.9253 47.6087 -132.895
58.8611 46.8588 -135.05
59.4992 46.8055 -136.965
60.1308 45.7664 -138.442
58.0615 42.4999 -133.683
59.8946 45.1559 -137.989
58.4525 47.104 -134.699
58.2247 46.8764 -134.534
58.283 45.4273 -134.706
59.3693 44.0951 -137.221
57.6129 46.2219 -133.516
57.9965 46.2631 -134.7
58.9993 44.5526 -137.24
57.4536 47.2982 -133.653
58.3194 45.4628 -135.903
58.6768 46.2166 -136.94
57.427 44.6836 -134.07
57.4546 44.7015 -134.141
57.3476 43.946 -133.897
58.8347 44.3134 -137.578
58.5393 45.2196 -136.992
59.0828 47.1568 -138.32
57.0058 47.3572 -133.733
57.8517 47.3367 -135.991
57.7469 44.6778 -135.927
58.7188 48.0637 -138.588
57.1021 47.5585 -135.215
57.4175 44.2313 -136.218
60.1637 47.5 -143.509
59.6857 47.6306 -142.487
59.6857 47.6306 -142.487
56.7627 47.6185 -136.343
58.6574 46.5026 -141.099
57.7367 45.6519 -139.14
58.8178 45.7484 -142.111
57.6371 47.9733 -139.381
56.8901 45.8864 -137.799
58.1574 46.4191 -142.16
57.5637 47.3987 -140.994
56.4705 45.7873 -138.773
56.4206 45.4701 -139.259
56.4894 45.522 -139.432
55.3919 44.4622 -137.116
