ply
format ascii 1.0
element vertex 712
property float x
property float y
property float z
property float nx
property float ny
property float nz
property uchar diffuse_red
property uchar diffuse_green
property uchar diffuse_blue
end_header
-1.18452 -0.141387 3.81285 0.495578 -0.709279 -0.501324 48 116 100
-1.17505 -0.144811 3.81196 -0.00657507 -0.713132 -0.700999 47 113 97
-1.14495 -0.148105 3.81039 0.0042639 -0.723926 -0.689865 27 91 76
-1.14598 -0.141273 3.80877 0.418327 -0.755086 -0.504824 42 111 93
-1.13755 -0.145012 3.81044 0.00546247 -0.793353 -0.608737 67 133 116
-1.1282 -0.148672 3.81726 0.443195 -0.738312 -0.508404 31 97 83
-1.09296 -0.146748 3.80341 0.0216018 -0.762218 -0.64696 43 111 94
-1.08336 -0.143686 3.79203 0.152442 -0.63616 -0.756347 42 110 93
-1.07594 -0.149268 3.803 0.0180656 -0.791151 -0.611354 69 136 120
-1.066 -0.14564 3.8022 -0.0505701 -0.753084 -0.655978 30 97 80
-1.05676 -0.148879 3.80724 0.0452199 -0.751425 -0.658267 57 123 108
-1.0466 -0.145605 3.80292 0.0651022 -0.750057 -0.658162 18 84 69
-1.03796 -0.148426 3.80295 -0.132957 -0.714836 -0.686536 42 108 92
-1.02712 -0.145321 3.78703 0.0251174 -0.706515 -0.707253 28 94 78
-1.01875 -0.148617 3.79086 0.0598834 -0.719506 -0.6919 20 86 69
-1.00849 -0.145095 3.78363 -0.0119214 -0.756769 -0.653574 39 105 88
-1.00493 -0.146492 3.78597 0.083936 -0.777344 -0.623451 21 85 68
-1.00516 -0.146798 3.78753 0.13787 -0.738201 -0.660341 22 86 69
-0.996065 -0.149432 3.78946 0.0752788 -0.732558 -0.67653 34 100 83
-0.996127 -0.149505 3.78961 0.10603 -0.727588 -0.677771 34 100 82
-0.986363 -0.146164 3.78614 -0.0125266 -0.795774 -0.605464 33 98 82
-0.986403 -0.146296 3.78685 -0.0359144 -0.796269 -0.603875 34 98 83
-0.976264 -0.150029 3.79001 0.0293252 -0.75225 -0.658225 23 86 71
-0.976253 -0.149698 3.7893 -0.0160745 -0.752629 -0.658249 23 87 72
-0.966584 -0.146235 3.78106 -0.184952 -0.721383 -0.667382 44 108 93
-0.966474 -0.146235 3.78093 -0.188706 -0.740177 -0.64539 43 107 92
-0.949297 -0.14547 3.78025 0.317231 -0.670975 -0.670192 66 134 117
-0.941634 -0.147123 3.78898 -0.268393 -0.70003 -0.661758 25 94 78
-0.931714 -0.145047 3.77865 0.0152829 -0.719563 -0.694259 56 122 106
-0.922389 -0.145749 3.77999 -0.088292 -0.719644 -0.688707 36 101 85
-0.913483 -0.15066 3.78452 -0.189982 -0.73593 -0.649857 36 103 86
-0.904302 -0.146777 3.78017 0.0612375 -0.755001 -0.652857 38 104 87
-0.894868 -0.150576 3.78293 -0.135556 -0.727764 -0.672298 22 87 70
-0.885674 -0.146454 3.77939 0.0956967 -0.759151 -0.643841 70 135 118
-0.877171 -0.150473 3.78375 0.0594405 -0.763484 -0.643085 23 84 69
-0.868463 -0.147248 3.78036 -0.0313469 -0.733216 -0.679273 42 108 92
-0.859284 -0.150781 3.77994 -0.0594839 -0.739329 -0.670712 47 112 97
-0.851385 -0.149015 3.77902 0.0316715 -0.74832 -0.662582 29 94 79
-0.842365 -0.152232 3.78273 0.0299675 -0.741586 -0.670188 56 126 107
-0.834386 -0.154676 3.79377 0.104404 -0.787157 -0.607852 20 88 71
-0.825049 -0.151279 3.78595 -0.0241701 -0.74524 -0.666358 53 120 105
-0.81581 -0.147995 3.78172 -0.0135622 -0.749821 -0.661502 27 93 80
-0.815909 -0.154836 3.78775 -0.0208751 -0.745983 -0.665637 52 120 106
-0.801811 -0.153711 3.78553 0.0865573 -0.752938 -0.652375 74 141 127
-0.794682 -0.151593 3.78385 0.131729 -0.775752 -0.617135 46 108 96
-0.784877 -0.154824 3.78847 0.00516808 -0.777451 -0.628922 29 91 79
-0.774979 -0.151252 3.78486 0.0163266 -0.79842 -0.601879 66 126 112
-0.75395 -0.150564 3.78509 0.0373746 -0.758831 -0.650214 72 135 123
-0.746424 -0.153613 3.78791 -0.124925 -0.743167 -0.657341 21 76 65
-0.734661 -0.157095 3.7925 0.0391457 -0.764795 -0.643083 61 119 106
-0.72511 -0.153325 3.78867 -0.0362838 -0.72241 -0.690512 22 76 64
-0.715232 -0.156764 3.79264 0.0303848 -0.781124 -0.623636 31 80 68
-0.705567 -0.152844 3.78773 0.0466362 -0.771744 -0.634221 36 85 71
-0.695606 -0.156061 3.792 -0.0533587 -0.743239 -0.666895 10 49 36
-0.687425 -0.151921 3.78796 0.11959 -0.687635 -0.71614 33 71 59
-0.679004 -0.154073 3.79314 0.308598 -0.683882 -0.661115 1 23 12
-0.669218 -0.155881 3.79824 0.163802 -0.739911 -0.652457 23 54 43
-0.659057 -0.152712 3.79145 -0.000744693 -0.827031 -0.562156 1 28 20
-0.650077 -0.155232 3.79367 0.174412 -0.790271 -0.587411 18 48 46
-0.640737 -0.157839 3.79962 0.389314 -0.642508 -0.660014 87 126 128
-0.639929 -0.157287 3.79816 0.185986 -0.76806 -0.612775 91 131 133
-0.632363 -0.158976 3.80143 0.148633 -0.727983 -0.66929 91 133 139
-0.614009 -0.156602 3.79582 0.217143 -0.816735 -0.534596 76 123 133
-0.605051 -0.159877 3.79748 -0.0902352 -0.79285 -0.602699 86 131 141
-0.516495 -0.159507 3.7992 0.0497732 -0.839291 -0.541399 90 136 144
-0.523597 -0.159045 3.81269 -0.595198 -0.523396 -0.609752 81 126 137
-0.510233 -0.161748 3.80585 -0.457742 -0.656643 -0.59941 86 132 140
-0.50819 -0.159041 3.80126 -0.434801 -0.678695 -0.591879 84 132 139
-0.474511 -0.161303 3.81273 0.0544197 -0.843335 -0.534626 90 148 144
-0.462961 -0.157564 3.80895 0.0780734 -0.842945 -0.532305 20 76 68
-0.463537 -0.164417 3.81925 0.0524266 -0.830167 -0.555045 15 71 61
-0.452598 -0.161347 3.81447 -0.0175873 -0.820468 -0.571422 69 134 118
-0.442139 -0.158192 3.80943 -0.0415207 -0.813437 -0.580169 14 74 58
-0.442141 -0.165223 3.81931 -0.0493062 -0.818928 -0.571775 23 84 68
-0.431686 -0.16207 3.8143 -0.0251749 -0.816827 -0.576333 94 162 144
-0.421938 -0.158726 3.8096 0.011876 -0.800155 -0.599675 15 78 62
-0.410307 -0.162027 3.81431 -0.0242021 -0.800989 -0.59819 71 139 121
-0.399704 -0.165828 3.82019 0.0408193 -0.792166 -0.608939 18 84 67
-0.371394 -0.161029 3.81416 0.040137 -0.800895 -0.597458 66 133 116
-0.361074 -0.16401 3.81899 0.056683 -0.795266 -0.603605 35 98 83
-0.361091 -0.1641 3.81915 0.0611923 -0.797229 -0.600567 35 98 83
-0.346729 -0.167324 3.82402 -0.0148328 -0.817617 -0.575572 51 120 103
-0.334994 -0.163277 3.81894 0.0694714 -0.795485 -0.601978 29 95 82
-0.335502 -0.163437 3.81874 0.0568384 -0.816012 -0.575234 30 97 83
-0.324355 -0.166839 3.82527 0.0058695 -0.818622 -0.574303 88 157 140
-0.313796 -0.163258 3.82146 0.00856506 -0.816227 -0.577668 18 78 64
-0.303409 -0.167263 3.82651 -0.0530211 -0.802359 -0.594482 87 152 136
-0.293355 -0.162651 3.81989 0.11201 -0.797588 -0.592712 29 95 78
-0.282619 -0.165423 3.82451 0.0894997 -0.817402 -0.569073 74 142 125
-0.272147 -0.168613 3.83003 0.0509923 -0.803037 -0.593744 24 86 72
-0.261454 -0.165118 3.82549 0.00878053 -0.802923 -0.596019 85 150 137
-0.25121 -0.168554 3.83066 0.0197095 -0.7966 -0.604186 22 86 73
-0.239984 -0.164125 3.82637 0.0886285 -0.825047 -0.558071 76 142 124
-0.229372 -0.16723 3.83203 0.104473 -0.830226 -0.54755 24 87 71
-0.218258 -0.170053 3.83732 0.0791136 -0.833346 -0.547061 78 146 130
-0.207659 -0.165983 3.83125 0.0454975 -0.805567 -0.590755 27 90 76
-0.206997 -0.165608 3.83095 0.034805 -0.819208 -0.572439 29 93 78
-0.200011 -0.171176 3.83967 0.0997332 -0.828405 -0.551179 72 138 123
-0.188987 -0.166315 3.83379 0.122646 -0.820414 -0.558461 22 90 76
-0.177868 -0.168824 3.83932 0.118449 -0.824024 -0.554035 79 148 131
-0.167237 -0.172204 3.84704 0.110349 -0.823667 -0.556234 30 93 77
-0.155763 -0.167475 3.84279 0.132348 -0.808951 -0.572785 93 159 143
-0.155924 -0.167457 3.842 0.0757114 -0.802858 -0.591343 94 159 143
-0.14508 -0.169923 3.84711 0.14148 -0.81692 -0.559129 27 82 71
-0.135056 -0.173603 3.85307 -0.0310648 -0.79569 -0.604907 61 124 108
-0.123846 -0.168898 3.84561 0.153481 -0.809464 -0.566755 24 84 70
-0.112616 -0.17124 3.85246 0.11987 -0.821026 -0.558165 84 156 139
-0.101283 -0.173817 3.85838 0.121178 -0.821102 -0.55777 21 88 71
-0.0913465 -0.168707 3.85211 0.132642 -0.802749 -0.581378 71 143 124
-0.0803371 -0.171336 3.8578 0.14379 -0.799898 -0.582656 36 107 88
-0.0720276 -0.173741 3.86269 0.197475 -0.795798 -0.572459 89 161 144
-0.061103 -0.175828 3.86877 0.193019 -0.795821 -0.573945 11 71 61
-0.049473 -0.171156 3.86692 0.105495 -0.824484 -0.555964 93 161 147
-0.0335764 -0.171099 3.87051 0.0931127 -0.815329 -0.571462 76 144 130
-0.0218306 -0.173997 3.87831 0.0962012 -0.822714 -0.560257 22 86 74
-0.010185 -0.176874 3.88556 0.0939299 -0.825093 -0.557134 79 148 135
-0.0100867 -0.176886 3.88512 0.0921913 -0.825433 -0.556921 80 150 137
0.00157133 -0.172225 3.88032 0.0938582 -0.825071 -0.557179 29 96 84
0.012394 -0.174398 3.88995 0.118951 -0.815625 -0.56622 84 154 141
0.0242304 -0.177286 3.89796 0.101373 -0.821172 -0.561605 34 102 88
0.0371604 -0.17346 3.89414 0.258934 -0.762581 -0.59281 36 99 86
0.0360835 -0.179978 3.90655 0.115243 -0.815769 -0.566781 57 121 108
0.0590347 -0.176741 3.90633 0.226015 -0.775862 -0.589029 32 99 82
0.0781425 -0.176902 3.91297 0.171069 -0.797565 -0.578467 43 111 95
0.0900151 -0.179467 3.92229 0.309774 -0.728818 -0.610627 59 129 112
0.101223 -0.18108 3.9325 0.312093 -0.725935 -0.612875 22 87 76
0.112036 -0.182545 3.93957 0.312072 -0.726688 -0.611993 81 151 137
0.112024 -0.182604 3.93985 0.307533 -0.729369 -0.611101 81 151 137
0.134509 -0.178445 3.94723 0.310195 -0.726862 -0.612741 64 131 115
0.145946 -0.181806 3.95771 0.393869 -0.665577 -0.633935 53 122 106
0.155926 -0.183009 3.96199 0.38112 -0.675045 -0.631713 35 103 87
0.17283 -0.182168 3.97639 0.245226 -0.760296 -0.60151 59 130 115
0.185306 -0.184386 3.98736 0.223418 -0.769973 -0.597683 55 126 110
0.19978 -0.187969 4.00149 0.183938 -0.786364 -0.589744 47 116 101
0.215387 -0.186285 4.01497 0.215546 -0.771923 -0.598059 42 111 96
0.229392 -0.190261 4.0455 0.142221 -0.798341 -0.585171 48 115 101
0.241485 -0.184811 4.04197 0.147402 -0.799633 -0.582116 69 136 123
0.243744 -0.186872 4.0514 -0.00926783 -0.842311 -0.538913 69 138 123
0.258507 -0.191397 4.0711 -0.219442 -0.814866 -0.536507 60 127 112
0.274694 -0.189215 4.09721 -0.0776441 -0.840874 -0.535633 62 130 116
0.276333 -0.191044 4.09897 0.0935276 -0.757612 -0.645969 62 129 114
0.277358 -0.191245 4.10468 -0.148842 -0.834385 -0.530706 65 131 115
0.32472 -0.195622 4.18929 -0.00889903 -0.713944 -0.700146 32 48 41
0.372762 -0.199888 4.22182 0.0548127 -0.823133 -0.565197 119 106 97
0.385285 -0.200608 4.24543 0.40311 -0.0325605 -0.914572 109 97 88
0.393145 -0.20053 4.24625 0.338499 -0.0589838 -0.939116 91 75 62
0.4 -0.200333 4.24362 0.128217 0.366695 -0.921464 82 65 50
0.409737 -0.200474 4.24887 0.147918 -0.218194 -0.96463 95 75 59
-1.43343 -0.136186 3.93486 0.871679 -0.189305 -0.45204 72 58 49
-1.43266 -0.135201 3.93114 0.844148 -0.280436 -0.456914 71 58 50
-1.46814 -0.142752 4.08473 0.573721 -0.67512 -0.463743 73 57 47
-1.41283 -0.138823 3.95547 0.51918 -0.0890684 -0.850011 67 64 61
-1.40649 -0.135757 3.96025 0.669391 -0.151686 -0.72726 64 90 82
-1.40217 -0.14102 3.96475 0.706784 -0.160438 -0.688996 64 90 81
-1.3824 -0.140008 3.97524 0.902699 -0.192513 -0.384804 51 130 113
-1.32384 -0.137606 3.87582 -0.245218 -0.728965 -0.639123 46 121 105
-1.31038 -0.135153 3.85665 -0.272853 -0.710082 -0.649103 40 115 98
-1.18201 -0.134611 3.79932 0.286203 -0.714915 -0.637953 60 127 110
-1.17507 -0.137827 3.80493 0.0624372 -0.602062 -0.796004 31 96 80
-1.14651 -0.134585 3.79145 -0.143788 -0.752204 -0.64305 56 123 107
-1.13694 -0.137921 3.79785 0.0227598 -0.79326 -0.608457 39 106 88
-1.08332 -0.136711 3.78454 -0.0775804 -0.718921 -0.690749 51 118 100
-1.05657 -0.141739 3.79639 0.015469 -0.769942 -0.637927 44 109 94
-1.04655 -0.138557 3.79417 -0.00804267 -0.785444 -0.61888 25 91 76
-1.02814 -0.138234 3.77844 0.0291471 -0.815582 -0.577907 27 92 76
-1.01824 -0.141654 3.78058 -0.00237128 -0.78061 -0.625014 38 103 87
-1.00857 -0.138195 3.77619 -0.0119967 -0.749556 -0.661832 26 91 75
-0.99585 -0.142504 3.78048 0.00469794 -0.738241 -0.674521 52 118 102
-0.995972 -0.142586 3.78111 -0.0200366 -0.747797 -0.663626 51 117 101
-0.999308 -0.141717 3.77941 0.0475705 -0.783419 -0.619671 37 103 87
-0.986296 -0.139247 3.77662 -0.00857215 -0.794541 -0.60715 17 81 66
-0.986104 -0.139353 3.77704 -0.027347 -0.74336 -0.668333 18 81 66
-0.976318 -0.142784 3.78185 0.0600299 -0.785383 -0.616093 46 109 95
-0.976331 -0.143134 3.78261 0.0510531 -0.761967 -0.645601 45 108 94
-0.966429 -0.139113 3.77243 -0.20518 -0.742147 -0.638059 30 95 80
-0.957461 -0.144049 3.77715 0.345831 -0.649924 -0.676757 31 97 81
-0.949268 -0.13849 3.77333 0.15697 -0.674181 -0.721693 51 118 101
-0.941068 -0.141871 3.78132 -0.195301 -0.718759 -0.667266 21 86 70
-0.913592 -0.142807 3.77452 0.0377434 -0.724135 -0.688625 56 123 107
-0.904299 -0.139874 3.77186 0.000820588 -0.706747 -0.707466 23 86 71
-0.895134 -0.143741 3.77711 -0.0527121 -0.76738 -0.639022 31 97 80
-0.887072 -0.141115 3.77249 0.113191 -0.74048 -0.662479 47 113 96
-0.877194 -0.143592 3.77492 -0.0993835 -0.706013 -0.701191 15 76 60
-0.868451 -0.14039 3.77268 -0.0269635 -0.740619 -0.671384 68 135 117
-0.859129 -0.143875 3.77169 -0.0774149 -0.702086 -0.707872 23 88 73
-0.851552 -0.140855 3.76969 0.130958 -0.714544 -0.687224 50 117 100
-0.842251 -0.143804 3.77317 0.243036 -0.724674 -0.64481 57 125 107
-0.833175 -0.145557 3.77556 -0.0807914 -0.730384 -0.678241 21 84 67
-0.825004 -0.144387 3.77733 -0.0221424 -0.764072 -0.64475 76 142 127
-0.804638 -0.141464 3.77207 -0.00136758 -0.770091 -0.637932 70 136 123
-0.79468 -0.14468 3.77489 0.0240182 -0.792573 -0.609303 26 87 75
-0.784892 -0.147896 3.77945 0.0307122 -0.79062 -0.611537 42 105 91
-0.774857 -0.144306 3.77493 0.0762899 -0.772405 -0.630532 25 83 70
-0.763474 -0.147152 3.78116 0.0473348 -0.787577 -0.614396 37 99 85
-0.753968 -0.143686 3.77679 0.00269562 -0.778395 -0.627769 41 103 90
-0.744177 -0.145423 3.77867 -0.0284217 -0.77526 -0.631002 18 74 63
-0.735248 -0.14914 3.7823 -0.0411135 -0.744478 -0.666379 83 146 131
-0.726433 -0.146088 3.77962 -0.0517066 -0.744714 -0.665378 27 82 70
-0.716551 -0.149337 3.78359 0.0454528 -0.808148 -0.587223 40 97 84
-0.706808 -0.145685 3.77993 0.0272703 -0.790597 -0.611729 24 79 65
-0.695775 -0.149195 3.7856 0.0302569 -0.79588 -0.604698 35 82 69
-0.68738 -0.144905 3.78005 0.107761 -0.757298 -0.644118 18 56 46
-0.679003 -0.146947 3.78576 0.237887 -0.694561 -0.678966 3 32 21
-0.668277 -0.150003 3.79185 -0.15341 -0.767036 -0.622994 34 65 55
-0.658951 -0.145738 3.78169 0.0923919 -0.742437 -0.663514 3 34 27
-0.658794 -0.145619 3.78172 0.0638951 -0.757801 -0.649349 3 34 27
-0.650077 -0.148212 3.78521 0.161071 -0.759233 -0.630573 72 112 112
-0.640719 -0.150562 3.79112 0.362976 -0.694833 -0.62085 88 132 137
-0.632381 -0.151645 3.79468 0.422509 -0.727459 -0.540639 81 128 135
-0.630596 -0.152518 3.80128 0.478522 -0.691819 -0.540744 82 129 136
-0.621608 -0.149635 3.78171 -0.245183 -0.742125 -0.623807 79 124 132
-0.527982 -0.151625 3.78531 0.345091 -0.762506 -0.547263 84 130 141
-0.517528 -0.152449 3.79295 0.316573 -0.775522 -0.546211 85 133 142
-0.507692 -0.150116 3.78858 -0.137948 -0.79083 -0.596287 84 133 139
-0.462941 -0.150571 3.79872 -0.0315297 -0.840744 -0.540514 25 84 77
-0.452629 -0.154823 3.80544 -0.077332 -0.818854 -0.568768 54 117 102
-0.442056 -0.151146 3.79902 0.0122635 -0.810387 -0.585766 26 85 70
-0.431663 -0.154546 3.80379 -0.0291332 -0.801338 -0.597501 88 155 137
-0.432259 -0.15519 3.80455 -0.00100321 -0.80827 -0.588811 94 161 143
-0.421526 -0.151283 3.79909 0.0255543 -0.807518 -0.589289 19 81 65
-0.42165 -0.15167 3.79953 0.0219729 -0.813546 -0.581085 18 80 64
-0.421578 -0.158316 3.80896 -0.0024 -0.807081 -0.590436 14 77 61
-0.400193 -0.158733 3.81041 -0.000652328 -0.801133 -0.598487 19 84 68
-0.391849 -0.155393 3.80793 -0.0286325 -0.818115 -0.574342 61 126 110
-0.382088 -0.158196 3.81168 0.106132 -0.801135 -0.588999 21 81 67
-0.372395 -0.153898 3.80585 -0.0204798 -0.807549 -0.589445 87 155 138
-0.361014 -0.156959 3.80912 0.0561814 -0.791012 -0.609216 14 75 61
-0.36103 -0.156859 3.80903 0.063182 -0.798418 -0.59878 14 74 61
-0.349937 -0.160183 3.81428 -0.0069569 -0.820316 -0.571869 49 115 99
-0.350695 -0.159879 3.81354 -0.00504165 -0.810473 -0.585754 45 111 95
-0.339253 -0.156722 3.80911 0.0131563 -0.801489 -0.597865 21 88 74
-0.335496 -0.155583 3.80826 -0.00555497 -0.795605 -0.60579 29 96 83
-0.324315 -0.159712 3.81477 0.0460884 -0.812277 -0.581448 66 133 117
-0.31367 -0.156088 3.80993 0.00992566 -0.826743 -0.562492 26 88 73
-0.303401 -0.160062 3.81688 0.0840941 -0.807547 -0.583777 81 148 131
-0.292815 -0.154877 3.80954 0.0144645 -0.803528 -0.595091 27 92 76
-0.282521 -0.158229 3.81485 0.0258732 -0.799062 -0.600691 69 135 120
-0.271785 -0.161626 3.82049 0.0622081 -0.820536 -0.568199 17 80 66
-0.260973 -0.157466 3.81521 0.0507676 -0.795572 -0.603729 77 143 128
-0.250696 -0.161057 3.82068 0.017029 -0.805073 -0.592931 18 82 68
-0.239945 -0.156966 3.81658 0.0601115 -0.812694 -0.579582 50 116 98
-0.229313 -0.16002 3.82174 0.0835435 -0.825565 -0.558089 26 89 72
-0.218406 -0.162817 3.82618 0.0484477 -0.815577 -0.576617 57 125 109
-0.199645 -0.163529 3.82826 0.0935408 -0.80216 -0.589737 85 153 136
-0.189074 -0.159061 3.82322 0.0955063 -0.807513 -0.582067 27 96 81
-0.178398 -0.161851 3.82887 0.0741584 -0.816862 -0.572046 90 160 142
-0.167357 -0.164831 3.83534 0.112173 -0.826068 -0.552294 16 76 61
-0.158133 -0.160153 3.83112 0.0907316 -0.811352 -0.577473 78 143 127
-0.147475 -0.16296 3.8359 0.0120342 -0.837347 -0.546539 25 81 69
-0.135917 -0.16648 3.84198 0.00672084 -0.827663 -0.561185 53 110 96
-0.123731 -0.161446 3.8356 0.0476809 -0.818838 -0.572042 33 96 81
-0.123077 -0.160999 3.83518 0.0246961 -0.805874 -0.591572 37 102 86
-0.112826 -0.163736 3.84066 0.152829 -0.809077 -0.567484 81 152 135
-0.102249 -0.166181 3.8461 0.154795 -0.806609 -0.570456 25 92 76
-0.0913771 -0.161287 3.84126 0.123706 -0.811595 -0.570974 54 125 107
-0.0801587 -0.16391 3.84885 0.139733 -0.812853 -0.565459 42 112 94
-0.0690648 -0.166306 3.85371 0.229628 -0.772524 -0.592012 50 117 102
-0.0610281 -0.168202 3.85911 0.191705 -0.79031 -0.581945 25 86 74
-0.0495098 -0.16374 3.85568 0.0854819 -0.82399 -0.560119 78 144 130
-0.0381376 -0.166637 3.86173 0.10443 -0.824655 -0.555912 39 107 92
-0.0166815 -0.164374 3.86443 0.100051 -0.824745 -0.556584 33 99 85
-0.0054297 -0.167082 3.86827 0.115016 -0.81339 -0.570235 63 132 118
0.00161739 -0.164701 3.86955 0.0941295 -0.825127 -0.557051 31 98 85
0.0131722 -0.167548 3.87528 0.0943227 -0.824996 -0.557212 77 146 132
0.0248561 -0.170413 3.8819 0.0971132 -0.821281 -0.562198 54 122 108
0.0481418 -0.167017 3.88881 0.255861 -0.76019 -0.597199 71 138 122
0.0590287 -0.168752 3.89532 0.225596 -0.775478 -0.589696 30 100 82
0.0701306 -0.170686 3.90206 0.217969 -0.779879 -0.586753 84 156 139
0.0702055 -0.170646 3.90208 0.223248 -0.777995 -0.587268 84 157 139
0.0899407 -0.171439 3.91124 0.234172 -0.768901 -0.594941 58 129 111
0.100983 -0.172606 3.92078 0.309706 -0.729864 -0.609411 27 93 80
0.111718 -0.174072 3.92772 0.311957 -0.726623 -0.61213 77 147 133
0.122784 -0.17554 3.93606 0.31218 -0.726796 -0.61181 30 97 82
0.122792 -0.17564 3.93626 0.307241 -0.729598 -0.610975 30 96 82
0.145428 -0.171515 3.94395 0.302798 -0.73124 -0.61123 43 112 96
0.156034 -0.173399 3.95309 0.296577 -0.734164 -0.610775 33 102 86
0.166401 -0.175345 3.95997 0.382096 -0.674411 -0.631801 62 131 117
0.176755 -0.176656 3.96717 0.380779 -0.674276 -0.632739 34 102 88
0.197943 -0.178373 3.99065 0.274577 -0.742494 -0.610991 39 109 94
0.244873 -0.179268 4.04567 0.300812 -0.702827 -0.644629 56 126 111
0.256102 -0.181258 4.05548 0.316581 -0.708544 -0.630668 48 116 103
0.279375 -0.18495 4.09986 -0.0902434 -0.607821 -0.788929 58 124 111
0.290125 -0.184612 4.11375 0.0279974 -0.829201 -0.558249 50 116 100
0.317853 -0.192132 4.20149 -0.0717094 -0.839521 -0.538574 52 101 86
0.325186 -0.187729 4.18364 0.0754886 -0.723359 -0.686334 23 47 38
0.335202 -0.191809 4.18842 -0.264061 -0.446977 -0.854683 97 95 91
0.368912 -0.194275 4.20789 0.685597 -0.111208 -0.719437 110 99 90
0.389075 -0.192723 4.24437 0.224815 -0.746763 -0.625941 97 84 73
0.396606 -0.192613 4.24406 0.241844 -0.735305 -0.633118 80 63 51
0.414781 -0.193399 4.25087 -0.248178 -0.0587196 -0.966933 96 76 58
-1.45048 -0.13143 3.98772 0.837073 -0.23357 -0.494726 72 58 48
-1.41835 -0.129511 3.94903 0.82437 -0.140139 -0.548429 65 66 61
-1.41678 -0.133045 3.95173 0.793274 -0.142989 -0.591837 66 65 60
-1.4103 -0.129962 3.95563 0.745408 -0.214676 -0.631095 64 90 82
-1.41325 -0.130564 3.9633 0.6808 -0.350496 -0.643167 64 81 75
-1.40064 -0.132858 3.96689 0.767799 -0.218383 -0.602323 69 132 115
-1.39381 -0.129538 3.96865 0.809404 -0.247111 -0.532731 56 133 115
-1.36636 -0.126783 3.90181 -0.357452 -0.644599 -0.675811 51 132 112
-1.34106 -0.125875 3.85975 0.346659 -0.441843 -0.827407 48 124 108
-1.3222 -0.129056 3.85889 -0.249273 -0.728789 -0.637754 46 120 102
-1.10232 -0.127972 3.77855 -0.227514 -0.736758 -0.636731 50 118 100
-1.09284 -0.130649 3.77953 0.0107946 -0.779082 -0.62683 32 98 80
-1.07513 -0.13366 3.77911 -0.0895249 -0.648114 -0.756263 27 91 74
-1.05931 -0.131984 3.78878 0.0531679 -0.751484 -0.657606 37 101 85
-1.04487 -0.134816 3.7744 -0.140846 -0.730902 -0.667791 27 90 74
-1.00793 -0.132135 3.77917 -0.0317949 -0.741373 -0.67034 32 99 83
-0.997346 -0.130335 3.76958 0.18566 -0.773201 -0.606375 45 112 96
-0.988004 -0.13245 3.7799 -0.0298885 -0.785334 -0.61835 26 92 77
-0.987802 -0.132753 3.77963 0.135497 -0.805639 -0.576703 25 91 76
-0.977411 -0.132194 3.77993 0.0257097 -0.809711 -0.586265 47 113 97
-0.948878 -0.13157 3.76392 0.108818 -0.789662 -0.603815 25 90 74
-0.934207 -0.132434 3.7743 -0.000497588 -0.826022 -0.563637 47 113 98
-0.924653 -0.136514 3.77979 -0.155938 -0.796347 -0.584393 19 86 70
-0.904328 -0.133049 3.76528 0.00749659 -0.700805 -0.713313 21 83 69
-0.895728 -0.136411 3.76664 -0.0840567 -0.727589 -0.680844 49 115 99
-0.887323 -0.134327 3.76692 0.1077 -0.746988 -0.656057 36 101 85
-0.877438 -0.136803 3.7694 -0.0261026 -0.748455 -0.662672 29 91 75
-0.868514 -0.132877 3.76189 0.0621209 -0.762151 -0.644412 65 130 113
-0.860167 -0.137749 3.7668 -0.207642 -0.713724 -0.668941 22 86 71
-0.851693 -0.13404 3.76289 0.0482263 -0.712458 -0.700056 58 124 107
-0.842303 -0.136971 3.76553 0.0635768 -0.764346 -0.641664 33 100 82
-0.833862 -0.133885 3.7655 -0.0351689 -0.743525 -0.667783 39 105 88
-0.824985 -0.137521 3.76873 0.0633903 -0.772731 -0.63156 55 122 107
-0.815513 -0.140464 3.77222 -0.106514 -0.745206 -0.658273 22 85 73
-0.801141 -0.133739 3.76073 -0.0273566 -0.767062 -0.640989 25 88 76
-0.793023 -0.13762 3.76508 -0.0202102 -0.781925 -0.623045 27 89 77
-0.783884 -0.141125 3.77103 -0.0339637 -0.807664 -0.588664 80 144 130
-0.774943 -0.137489 3.76812 0.0345222 -0.753064 -0.657041 18 77 62
-0.763429 -0.140253 3.77206 0.04445 -0.791157 -0.609996 59 121 105
-0.753766 -0.136756 3.76565 0.0495346 -0.837113 -0.544782 27 84 71
-0.744533 -0.140604 3.77285 -0.0455164 -0.778385 -0.626135 34 93 80
-0.735219 -0.142259 3.77421 0.243866 -0.737374 -0.629928 72 135 121
-0.726404 -0.139204 3.77151 -0.0592599 -0.792669 -0.606766 16 70 59
-0.726009 -0.136986 3.76862 -0.116741 -0.805297 -0.581265 23 78 67
-0.716594 -0.142437 3.77529 0.0257078 -0.794367 -0.606894 73 134 120
-0.706744 -0.138753 3.76933 0.0393146 -0.807256 -0.58889 12 65 52
-0.696578 -0.142205 3.77536 0.00375604 -0.811729 -0.584023 51 100 87
-0.687351 -0.137973 3.77144 0.137216 -0.778078 -0.612998 3 37 28
-0.678928 -0.139919 3.7773 0.233591 -0.770415 -0.593208 16 51 41
-0.668145 -0.143011 3.78168 0.0603592 -0.822302 -0.565841 21 55 44
-0.658956 -0.13887 3.77503 0.07356 -0.69863 -0.711692 13 52 46
-0.650025 -0.141242 3.77685 0.134376 -0.719418 -0.681454 89 137 138
-0.64135 -0.143854 3.78108 0.270283 -0.765502 -0.583912 81 129 134
-0.631316 -0.144027 3.77597 -0.250795 -0.776213 -0.578442 94 142 149
-0.621645 -0.142656 3.77318 0.0821506 -0.832985 -0.547163 82 129 134
-0.610776 -0.1454 3.77944 0.0963648 -0.847096 -0.52263 90 136 142
-0.574224 -0.141353 3.74287 0.0263291 0.817168 -0.575798 76 121 138
-0.564582 -0.144796 3.73924 -0.131574 0.858272 -0.496042 72 118 134
-0.518411 -0.141902 3.77507 0.231461 -0.809776 -0.539156 87 135 144
-0.507768 -0.14335 3.78265 0.234889 -0.805846 -0.543543 93 143 150
-0.497567 -0.148554 3.78755 -0.20716 -0.799472 -0.563852 95 146 151
-0.478196 -0.145351 3.78246 0.223427 -0.810584 -0.541327 105 156 162
-0.469349 -0.143974 3.78588 -0.00343566 -0.72122 -0.692697 73 128 129
-0.460709 -0.147551 3.79321 0.194513 -0.818133 -0.541131 59 120 111
-0.452622 -0.148052 3.7953 -0.0220605 -0.838045 -0.545156 61 122 109
-0.442109 -0.144172 3.7897 0.041142 -0.812521 -0.581478 46 108 94
-0.432319 -0.148199 3.79502 0.00168649 -0.820043 -0.572299 65 130 113
-0.422097 -0.144632 3.79032 0.0263796 -0.812383 -0.582527 28 90 74
-0.411199 -0.147975 3.7949 0.00431474 -0.826867 -0.562381 48 114 97
-0.400179 -0.151678 3.80085 0.0313858 -0.810954 -0.584268 27 90 75
-0.39269 -0.147969 3.79555 0.130724 -0.79635 -0.590541 71 134 118
-0.392735 -0.147932 3.7955 0.13939 -0.795922 -0.589134 71 134 119
-0.382348 -0.151049 3.80033 0.0901676 -0.783683 -0.614582 19 79 64
-0.371955 -0.147117 3.79554 0.076318 -0.816087 -0.572867 72 139 123
-0.361065 -0.149825 3.79907 0.0323964 -0.825089 -0.564073 10 71 57
-0.361069 -0.149922 3.79898 0.0322926 -0.834323 -0.550329 10 71 56
-0.349912 -0.153128 3.8039 -0.00732587 -0.820624 -0.571421 79 147 131
-0.350409 -0.146069 3.79399 0.0142712 -0.83753 -0.546204 72 140 123
-0.339325 -0.149707 3.79976 0.00917554 -0.806567 -0.591071 22 89 75
-0.335543 -0.148559 3.79843 0.0236894 -0.817263 -0.575777 37 105 91
-0.325081 -0.152274 3.80373 -0.0243952 -0.807513 -0.589345 54 118 103
-0.324442 -0.152575 3.80426 0.00487494 -0.806891 -0.590681 48 112 96
-0.31368 -0.149009 3.79964 -0.0273956 -0.834657 -0.550088 38 100 86
-0.302776 -0.152462 3.80492 0.0287943 -0.783031 -0.621315 48 113 98
-0.290089 -0.148469 3.80001 0.0111958 -0.777606 -0.628652 84 150 136
-0.28258 -0.151114 3.80498 0.0217113 -0.795481 -0.605589 48 112 98
-0.271809 -0.154427 3.81 0.0905929 -0.795008 -0.599796 27 90 76
-0.261008 -0.150318 3.80565 0.0700473 -0.799696 -0.596305 57 122 108
-0.250919 -0.153478 3.81013 0.0456069 -0.795391 -0.604378 30 96 80
-0.240043 -0.149826 3.80644 0.0337831 -0.799333 -0.599938 46 110 93
-0.229568 -0.153152 3.81173 0.0860151 -0.811059 -0.578606 24 90 73
-0.229707 -0.153121 3.81182 0.0930587 -0.818162 -0.567407 24 89 72
-0.219039 -0.155967 3.81652 -0.0329068 -0.817762 -0.574615 68 136 121
-0.208272 -0.152735 3.81202 -0.0242036 -0.819763 -0.572191 34 100 84
-0.199893 -0.156301 3.81737 0.0888332 -0.806796 -0.584113 67 136 119
-0.189038 -0.151859 3.81319 0.0954505 -0.814137 -0.572774 33 103 86
-0.178333 -0.154601 3.81834 0.077912 -0.805081 -0.588026 72 138 123
-0.158213 -0.152818 3.82041 0.1393 -0.805514 -0.575971 71 138 121
-0.147577 -0.15522 3.8255 0.139133 -0.79865 -0.585492 17 72 58
-0.148507 -0.158438 3.83014 0.11445 -0.765535 -0.633133 14 71 57
-0.133835 -0.157573 3.8289 0.033776 -0.799097 -0.600253 43 99 86
-0.12308 -0.153679 3.82561 -0.0166598 -0.801919 -0.5972 42 108 93
-0.112956 -0.156308 3.82995 0.12073 -0.787902 -0.60385 48 118 102
-0.102202 -0.15878 3.83635 0.143785 -0.795144 -0.589129 42 110 94
-0.0913135 -0.153931 3.83155 0.127932 -0.808171 -0.574885 52 123 106
-0.0809547 -0.156155 3.83471 0.173187 -0.805904 -0.56615 46 117 101
-0.0689281 -0.158863 3.84429 0.149374 -0.811883 -0.564387 28 91 76
-0.0607505 -0.160564 3.84939 0.0878845 -0.82969 -0.551263 33 96 81
-0.0495409 -0.156434 3.84472 0.0532608 -0.824164 -0.563842 48 116 101
-0.0388802 -0.15888 3.84976 0.148111 -0.813029 -0.563069 41 109 93
-0.0278595 -0.161603 3.85583 0.142876 -0.810506 -0.568037 52 117 102
-0.0168436 -0.156943 3.85214 0.0792183 -0.824788 -0.559865 42 109 91
-0.00654779 -0.160059 3.85975 0.141448 -0.813562 -0.564012 72 141 124
0.0131092 -0.160017 3.86384 0.094076 -0.825123 -0.557065 66 133 119
0.0251919 -0.162932 3.8723 0.200508 -0.790455 -0.578772 49 118 104
0.0372496 -0.165257 3.88173 0.259307 -0.761706 -0.593772 17 78 66
0.0590054 -0.160633 3.88302 0.251718 -0.766044 -0.591451 27 94 78
0.0701133 -0.162671 3.89036 0.224596 -0.778355 -0.586277 86 157 140
0.0813393 -0.16469 3.89808 0.219815 -0.778979 -0.587259 17 85 68
0.0813999 -0.164585 3.89793 0.221805 -0.777036 -0.589082 17 85 69
0.0926119 -0.166687 3.908 0.259419 -0.758773 -0.597466 59 127 111
0.100859 -0.164149 3.90926 0.309347 -0.731198 -0.607992 22 84 73
0.111684 -0.165675 3.91726 0.310018 -0.730159 -0.608897 85 155 139
0.122499 -0.167109 3.92439 0.314 -0.725325 -0.612623 36 104 88
0.122562 -0.16712 3.92455 0.307737 -0.730487 -0.609662 36 104 88
0.133553 -0.168687 3.93268 0.307286 -0.729661 -0.610876 64 131 116
0.155964 -0.164924 3.94155 0.291203 -0.718505 -0.631626 27 94 79
0.16699 -0.166473 3.94901 0.29896 -0.732158 -0.61202 60 131 117
0.166496 -0.166716 3.94853 0.313634 -0.723625 -0.614817 60 130 116
0.176755 -0.167691 3.95761 0.381356 -0.674076 -0.632605 38 107 93
0.187441 -0.169017 3.96624 0.360997 -0.689457 -0.627957 66 137 121
0.209154 -0.171629 3.98757 0.274603 -0.743128 -0.610209 50 120 105
0.241517 -0.176607 4.03124 0.170057 -0.78446 -0.596409 57 126 111
0.253752 -0.171309 4.03737 0.375948 -0.669132 -0.641034 54 122 107
0.2903 -0.176613 4.10279 0.452131 -0.59303 -0.666253 52 119 101
0.300641 -0.177515 4.12638 0.294485 -0.726926 -0.620369 40 101 85
0.300641 -0.177515 4.12638 0.294485 -0.726926 -0.620369 40 101 85
0.31883 -0.180491 4.16941 0.294833 -0.72574 -0.621591 38 83 70
0.329495 -0.18201 4.17794 0.44517 -0.602487 -0.662445 44 55 50
0.339857 -0.185315 4.1917 0.284982 -0.51688 -0.80723 104 103 99
0.343397 -0.178947 4.17256 -0.0329149 -0.843748 -0.535729 111 103 97
0.36168 -0.186323 4.19947 0.671409 -0.176788 -0.719692 110 100 92
0.369717 -0.185089 4.21865 0.54132 -0.398961 -0.740137 108 97 88
0.407999 -0.185739 4.23869 0.286669 -0.715335 -0.637273 89 69 53
0.414369 -0.187999 4.24331 -0.247941 -0.719533 -0.648689 95 77 58
-1.44964 -0.120401 3.98402 0.839302 -0.393863 -0.374758 72 61 55
-1.43089 -0.120413 3.934 0.905355 -0.208868 -0.369739 69 61 56
-1.4245 -0.122942 3.94201 0.726746 -0.281799 -0.626442 65 64 60
-1.41622 -0.122402 3.9434 0.832021 0.415538 -0.367517 63 80 73
-1.41113 -0.122845 3.95329 0.474381 -0.641334 -0.603037 72 120 106
-1.4022 -0.1232 3.95428 0.490274 -0.5405 -0.683733 68 139 122
-1.39718 -0.123579 3.96132 0.830569 -0.267928 -0.488231 60 138 121
-1.33903 -0.11793 3.84516 -0.189042 -0.727905 -0.659104 42 115 101
-1.34353 -0.119629 3.85518 0.197706 -0.357585 -0.912713 46 120 104
-1.3363 -0.119643 3.85751 -0.523595 -0.368626 -0.768091 42 115 99
-1.33176 -0.122717 3.85108 -0.166762 -0.583502 -0.794806 43 117 101
-1.19282 -0.125105 3.79037 -0.0349882 -0.716641 -0.696564 33 98 81
-1.183 -0.12069 3.78691 -0.0856078 -0.696798 -0.71214 22 87 70
-1.1745 -0.123918 3.78595 0.0116033 -0.798418 -0.601992 27 91 76
-1.09284 -0.123843 3.77179 0.0970649 -0.748011 -0.65655 40 107 89
-1.08445 -0.121684 3.77063 -0.19347 -0.728857 -0.656763 39 106 89
-1.07519 -0.126551 3.7721 -0.190016 -0.705287 -0.682982 19 83 66
-1.06383 -0.124127 3.76906 0.034377 -0.620881 -0.78315 62 127 110
-1.05482 -0.127102 3.76948 -0.048174 -0.683619 -0.728248 26 88 73
-1.04783 -0.125617 3.78049 0.297481 -0.814248 -0.498504 49 113 97
-1.02278 -0.124146 3.76005 0.0875735 -0.75123 -0.654206 49 116 99
-1.01401 -0.127711 3.76614 0.385271 -0.764686 -0.516548 37 104 87
-1.00557 -0.124709 3.76172 -0.074388 -0.703123 -0.707166 42 110 92
-0.996298 -0.128415 3.76403 -0.0442501 -0.755558 -0.653586 36 102 87
-0.986501 -0.125125 3.76012 0.0030238 -0.75996 -0.649963 35 98 83
-0.975676 -0.125183 3.75769 0.42968 -0.736391 -0.522593 40 104 88
-0.975625 -0.124975 3.75694 0.413652 -0.746203 -0.521607 39 103 87
-0.968331 -0.12864 3.76113 -0.197631 -0.731806 -0.652228 27 93 77
-0.9601 -0.125599 3.75959 -0.051784 -0.722219 -0.689723 52 119 102
-0.940866 -0.126998 3.75882 -0.107104 -0.767174 -0.632434 48 113 97
-0.933075 -0.126453 3.76634 0.0493372 -0.750885 -0.658588 26 91 76
-0.924726 -0.129463 3.77343 -0.067242 -0.76843 -0.636392 38 104 87
-0.913735 -0.12952 3.77292 0.0975396 -0.664816 -0.740612 51 115 99
-0.904511 -0.126281 3.76016 -0.0590799 -0.722456 -0.688888 26 90 75
-0.897056 -0.124893 3.7543 0.0575785 -0.783948 -0.618151 56 120 105
-0.887186 -0.127447 3.75691 0.106233 -0.785465 -0.60972 27 89 73
-0.877342 -0.129935 3.75973 0.116417 -0.783744 -0.610076 39 102 86
-0.868573 -0.125868 3.7549 0.100085 -0.726528 -0.679809 35 98 81
-0.860174 -0.130945 3.75994 -0.230617 -0.712162 -0.663054 25 88 72
-0.851563 -0.126732 3.75402 -0.0290246 -0.768522 -0.639164 61 124 108
-0.842234 -0.130136 3.75726 -0.00249352 -0.76977 -0.638317 24 88 72
-0.833744 -0.127021 3.75557 0.0132711 -0.752521 -0.658435 60 127 109
-0.824015 -0.129893 3.75882 0.0677839 -0.785656 -0.614939 36 99 84
-0.815646 -0.12673 3.75585 -0.034869 -0.718217 -0.694945 59 122 110
-0.81049 -0.130179 3.76918 0.406303 -0.736045 -0.541438 65 130 118
-0.801313 -0.126994 3.75583 -0.0716368 -0.705381 -0.705199 15 75 63
-0.792609 -0.130998 3.75826 -0.0954 -0.729251 -0.677563 45 108 95
-0.783881 -0.134057 3.76128 0.0218341 -0.763281 -0.645697 52 113 99
-0.784044 -0.127291 3.75521 0.0504977 -0.728639 -0.683034 22 80 67
-0.774972 -0.13064 3.75928 0.00826905 -0.760036 -0.649828 15 74 59
-0.765046 -0.13385 3.76405 0.0275047 -0.801173 -0.597801 60 122 106
-0.755367 -0.129988 3.75675 0.00126971 -0.771908 -0.635733 19 76 62
-0.744443 -0.133707 3.76311 -0.0218955 -0.80444 -0.59363 66 127 112
-0.735201 -0.135293 3.7658 0.229449 -0.78083 -0.581083 43 103 90
-0.72599 -0.130086 3.7588 0.0465006 -0.829865 -0.556023 33 93 79
-0.716967 -0.135657 3.76572 -0.132389 -0.80063 -0.584351 75 135 121
-0.706737 -0.13185 3.75978 0.0471569 -0.804785 -0.59169 15 64 52
-0.696536 -0.135281 3.76508 -0.030539 -0.820041 -0.571489 35 78 68
-0.680045 -0.131456 3.76516 0.141775 -0.782427 -0.60639 30 68 58
-0.679984 -0.131735 3.76572 0.153544 -0.789214 -0.594613 31 69 59
-0.670156 -0.133896 3.77544 0.333485 -0.768673 -0.545829 13 50 41
-0.649993 -0.134275 3.76866 0.157979 -0.7265 -0.668761 92 143 145
-0.641437 -0.136955 3.77557 0.284261 -0.798328 -0.530913 91 142 148
-0.631337 -0.137041 3.76704 -0.273631 -0.762672 -0.586052 100 150 156
-0.621959 -0.135801 3.76499 0.249543 -0.803185 -0.540946 86 136 142
-0.610941 -0.138472 3.76985 -0.173838 -0.78469 -0.595015 97 145 151
-0.601635 -0.136485 3.76684 -0.448406 -0.377223 -0.81033 88 137 145
-0.561251 -0.135117 3.76999 -0.11228 -0.0193384 -0.993488 94 138 152
-0.555063 -0.135014 3.76251 -0.379412 0.018799 -0.925037 86 130 144
-0.543759 -0.136573 3.74779 -0.759548 -0.00298557 -0.650444 78 124 138
-0.531135 -0.138403 3.73719 0.623528 0.466506 -0.627364 84 131 144
-0.52423 -0.138578 3.75742 0.608592 -0.561886 -0.560267 93 141 152
-0.518388 -0.135084 3.76468 0.324863 -0.707002 -0.628182 99 147 155
-0.507746 -0.136465 3.77321 0.249194 -0.796229 -0.551291 106 156 163
-0.497659 -0.141636 3.77671 -0.205336 -0.798358 -0.566093 87 138 144
-0.487031 -0.139941 3.77517 -0.190888 -0.806487 -0.55959 91 140 147
-0.478204 -0.13849 3.77598 -0.263421 -0.73314 -0.62699 93 142 149
-0.460776 -0.136336 3.77886 -0.0318343 -0.765656 -0.642462 69 130 124
-0.45178 -0.140427 3.78477 -0.0937254 -0.810423 -0.5783 14 69 59
-0.442031 -0.137237 3.78014 -0.0342134 -0.789384 -0.612945 94 158 143
-0.432275 -0.141221 3.7851 0.0103685 -0.807439 -0.58986 27 89 75
-0.421879 -0.137267 3.78024 0.00529969 -0.779809 -0.625995 40 104 88
-0.413623 -0.141555 3.78609 -0.00610123 -0.800794 -0.598908 74 140 123
-0.403175 -0.137611 3.78105 0.0520264 -0.813544 -0.579171 40 104 88
-0.403119 -0.144564 3.79033 0.0437749 -0.81623 -0.576067 25 88 72
-0.392674 -0.140621 3.78528 0.00570109 -0.806847 -0.590733 36 96 82
-0.382351 -0.144037 3.7905 0.0501305 -0.812727 -0.580484 25 87 72
-0.382369 -0.144055 3.79052 0.044019 -0.81332 -0.580149 25 86 72
-0.372137 -0.140483 3.7862 -0.0259713 -0.826997 -0.561606 74 139 124
-0.36107 -0.142819 3.78887 0.0286842 -0.823285 -0.566903 27 91 75
-0.350212 -0.139061 3.78469 0.0883287 -0.804989 -0.586677 62 130 114
-0.350178 -0.145981 3.79331 0.0437493 -0.837617 -0.544503 69 138 121
-0.340169 -0.141847 3.78886 0.0761731 -0.811261 -0.579701 28 94 79
-0.324892 -0.145238 3.79386 -0.0151197 -0.828038 -0.560468 28 89 75
-0.310455 -0.142575 3.7903 0.19072 -0.789034 -0.583996 76 143 129
-0.300499 -0.1453 3.79486 0.0441443 -0.807566 -0.588123 17 81 67
-0.290635 -0.140859 3.78955 -0.079574 -0.823702 -0.561412 66 131 118
-0.280926 -0.143631 3.79532 0.0201585 -0.796176 -0.604729 24 84 74
-0.270905 -0.146464 3.80031 0.131598 -0.814853 -0.564532 68 132 119
-0.261492 -0.143229 3.79567 0.0432999 -0.826777 -0.560861 48 113 99
-0.250495 -0.146523 3.80141 0.0212936 -0.815928 -0.577762 61 127 111
-0.240067 -0.142737 3.7965 0.0281758 -0.809567 -0.586351 31 95 78
-0.229585 -0.146045 3.80173 0.065627 -0.810507 -0.582041 48 113 98
-0.229815 -0.14598 3.80163 0.0637138 -0.807014 -0.587085 46 112 96
-0.219158 -0.149019 3.80645 0.017075 -0.81678 -0.576696 48 115 101
-0.208365 -0.145888 3.80262 -0.0044696 -0.81136 -0.584529 51 118 103
-0.199065 -0.149159 3.80805 0.119302 -0.82053 -0.559014 58 126 110
-0.189147 -0.14468 3.8033 0.109805 -0.785024 -0.609655 42 109 92
-0.179032 -0.147394 3.80898 0.0959599 -0.789521 -0.606175 69 130 116
-0.180044 -0.148044 3.80807 0.128982 -0.796979 -0.590074 79 142 128
-0.168933 -0.150194 3.81398 0.117831 -0.803273 -0.58384 23 80 67
-0.158304 -0.145559 3.80992 0.113295 -0.802409 -0.585921 77 143 127
-0.147561 -0.147902 3.81536 0.144266 -0.818079 -0.556717 21 76 62
-0.133887 -0.149911 3.81825 -0.0130357 -0.831275 -0.555709 33 90 77
-0.123202 -0.146538 3.81537 -0.00135105 -0.804926 -0.593374 49 117 101
-0.112576 -0.150184 3.82176 0.0794593 -0.812088 -0.5781 35 102 87
-0.102244 -0.151391 3.82553 0.144354 -0.81724 -0.557926 29 96 80
-0.0807686 -0.148782 3.8266 0.162577 -0.791977 -0.588508 64 134 117
-0.0702651 -0.151051 3.83129 0.153197 -0.814153 -0.560076 32 94 79
-0.0607944 -0.153257 3.8383 0.106279 -0.820941 -0.561035 38 102 87
-0.0491105 -0.149173 3.83455 0.173014 -0.80422 -0.568592 37 103 89
-0.0388199 -0.151511 3.84047 0.13797 -0.795967 -0.589407 53 121 104
-0.0278742 -0.154244 3.84672 0.109216 -0.810667 -0.575232 38 103 87
-0.016922 -0.14959 3.84208 0.0946479 -0.789978 -0.605785 57 124 106
-0.0168463 -0.149544 3.84203 0.095161 -0.790909 -0.604489 58 124 107
-0.00653795 -0.152539 3.84917 0.143353 -0.808746 -0.57042 36 103 85
0.00454779 -0.154953 3.85461 0.161068 -0.807391 -0.567607 53 121 105
0.0161438 -0.154895 3.85785 0.193717 -0.794767 -0.575169 24 89 77
0.0390408 -0.15327 3.86835 0.225845 -0.780398 -0.583072 13 69 59
0.048126 -0.158906 3.87671 0.251496 -0.767505 -0.589649 77 143 128
0.0701272 -0.154719 3.87981 0.224703 -0.778669 -0.585819 62 133 116
0.0812721 -0.156639 3.88662 0.224697 -0.77831 -0.586297 30 97 82
0.0925629 -0.158764 3.89616 0.258842 -0.760698 -0.595265 34 100 86
0.0925861 -0.158654 3.89616 0.267261 -0.756113 -0.597381 34 100 86
0.126463 -0.156461 3.90697 0.219683 -0.777992 -0.588615 72 141 125
0.132982 -0.160111 3.9188 0.311503 -0.726155 -0.612915 62 130 114
0.175999 -0.158417 3.9431 0.393728 -0.666404 -0.633154 42 111 96
0.186918 -0.159913 3.95419 0.390912 -0.667465 -0.633781 69 139 121
0.196441 -0.161035 3.96165 0.265095 -0.750458 -0.605423 39 106 88
0.209228 -0.16324 3.97938 0.274958 -0.74448 -0.608398 51 119 102
0.288748 -0.166401 4.08545 0.333846 -0.70242 -0.628613 55 120 102
0.300602 -0.168431 4.1152 0.294992 -0.727376 -0.619599 44 104 88
0.319198 -0.170398 4.16216 -0.284871 -0.809443 -0.513468 44 88 74
0.329176 -0.171781 4.167 0.443017 -0.606523 -0.660202 66 75 71
0.339488 -0.17642 4.18411 0.425567 -0.622578 -0.656726 109 105 103
0.350017 -0.177918 4.19077 0.428398 -0.619517 -0.657779 111 104 97
0.367804 -0.1754 4.21562 0.578236 -0.425418 -0.696177 104 95 89
0.374654 -0.176933 4.22892 0.0535503 -0.826165 -0.560878 104 94 87
0.388032 -0.180982 4.23768 0.0375262 -0.830338 -0.555995 102 88 78
0.387574 -0.180553 4.23549 0.0536613 -0.826264 -0.560721 102 88 78
0.396142 -0.175918 4.2149 -0.25053 -0.820784 -0.51337 82 64 51
0.403782 -0.175705 4.20758 -0.853531 -0.248151 -0.458154 89 70 55
-1.48403 -0.114354 4.02137 0.769284 0.522932 -0.367074 69 53 44
-1.48403 -0.114354 4.02137 0.769284 0.522932 -0.367074 69 53 44
-1.43592 -0.11012 3.92258 0.906941 -0.200475 -0.370498 68 60 56
-1.42728 -0.116345 3.94238 0.518926 -0.384156 -0.763636 63 67 64
-1.42005 -0.116249 3.94542 0.316792 -0.0746378 -0.945554 64 93 84
-1.42328 -0.117261 3.93925 0.793207 -0.40735 -0.452646 62 70 66
-1.413 -0.116227 3.94628 0.456612 -0.356825 -0.814973 71 128 112
-1.40511 -0.116146 3.94504 0.561035 -0.443898 -0.698709 64 137 119
-1.39551 -0.117073 3.95619 0.288238 0.0859215 -0.953696 54 131 115
-1.24395 -0.116887 3.79829 0.120394 -0.643935 -0.755548 35 104 88
-1.20506 -0.114296 3.77971 0.0957033 -0.717163 -0.690303 18 82 66
-1.18881 -0.111687 3.78165 -0.00688679 -0.552185 -0.833693 37 102 86
-1.18189 -0.115147 3.7848 -0.0337423 -0.576497 -0.816403 27 90 74
-1.09312 -0.116559 3.76508 0.0369675 -0.550395 -0.834086 58 126 108
-1.08449 -0.114531 3.76275 -0.213212 -0.7317 -0.647423 26 90 74
-1.07513 -0.119577 3.76413 -0.214452 -0.744352 -0.632417 18 81 64
-1.06361 -0.117326 3.75997 0.0855905 -0.748184 -0.657947 31 95 79
-1.0548 -0.120273 3.76315 -0.043507 -0.671686 -0.739557 26 88 73
-1.04616 -0.11827 3.76147 -0.207818 -0.740487 -0.639133 56 120 105
-1.03792 -0.116181 3.75614 -0.262627 -0.655251 -0.708289 16 79 64
-1.03042 -0.120688 3.75774 -0.0160844 -0.632649 -0.774272 43 106 90
-1.02172 -0.117063 3.75319 0.0357014 -0.726456 -0.686285 50 116 99
-1.01389 -0.120837 3.75853 -0.0559736 -0.691709 -0.720004 26 91 75
-1.0058 -0.117882 3.75647 0.0610801 -0.733392 -0.677057 62 129 112
-0.997226 -0.121684 3.76261 0.0591219 -0.746908 -0.662293 24 89 73
-0.984098 -0.115287 3.7503 0.0332625 -0.690316 -0.722743 50 115 99
-0.974957 -0.118525 3.74877 0.00779903 -0.72 -0.693931 19 82 66
-0.967588 -0.122259 3.7552 -0.0794972 -0.699141 -0.71055 25 90 73
-0.967661 -0.122084 3.75463 -0.0869608 -0.68957 -0.718979 25 90 73
-0.959733 -0.118802 3.75107 0.0122735 -0.6497 -0.760092 48 115 97
-0.95193 -0.122091 3.75305 -0.0442004 -0.717913 -0.694728 29 95 77
-0.936346 -0.116913 3.74603 -0.0357662 -0.667546 -0.743709 29 93 76
-0.93306 -0.119599 3.75927 -0.0361874 -0.664692 -0.746241 23 88 71
-0.924867 -0.122573 3.76424 0.081717 -0.693965 -0.715357 47 111 95
-0.919468 -0.117733 3.7473 0.0391418 -0.745356 -0.665516 54 118 102
-0.914026 -0.12267 3.76503 0.360257 -0.77559 -0.518339 36 100 85
-0.901921 -0.117335 3.74629 -0.117396 -0.707346 -0.697051 60 125 109
-0.885779 -0.119756 3.74824 -0.219755 -0.733264 -0.643453 23 83 69
-0.877414 -0.12315 3.75312 0.00260675 -0.725134 -0.688603 64 128 112
-0.868548 -0.119068 3.7474 0.08977 -0.728179 -0.679483 26 90 73
-0.860187 -0.123921 3.75252 -0.0871314 -0.740663 -0.666203 31 94 77
-0.842328 -0.123345 3.74997 0.0805269 -0.785429 -0.613691 15 78 62
-0.82322 -0.123093 3.74935 -0.0434242 -0.731121 -0.680865 17 78 63
-0.815411 -0.119939 3.74717 -0.0358313 -0.67594 -0.736085 79 143 129
-0.810502 -0.123375 3.7625 0.454644 -0.704078 -0.545503 46 110 98
-0.800443 -0.12052 3.74878 -0.0724022 -0.624388 -0.777751 23 83 69
-0.792025 -0.123984 3.75101 -0.0179694 -0.710621 -0.703346 72 135 121
-0.783136 -0.120824 3.74641 -0.0377379 -0.707641 -0.705563 22 80 66
-0.774637 -0.123968 3.75174 0.00601573 -0.7819 -0.623375 36 97 82
-0.764995 -0.126979 3.75423 0.0477812 -0.781462 -0.622121 70 132 117
-0.755342 -0.123168 3.74788 -0.0349275 -0.725551 -0.687281 19 76 62
-0.74699 -0.126806 3.75325 0.00968447 -0.769883 -0.638112 53 114 98
-0.738152 -0.123097 3.75461 -0.00169442 -0.756196 -0.654343 27 86 72
-0.715464 -0.126285 3.7563 0.203826 -0.704871 -0.679421 22 80 65
-0.699419 -0.126381 3.75389 0.0423448 -0.759003 -0.649709 37 81 70
-0.689722 -0.129019 3.75871 0.198411 -0.758893 -0.620253 1 32 26
-0.679992 -0.124585 3.7552 0.12938 -0.79057 -0.598548 38 81 70
-0.669875 -0.126844 3.76084 0.169763 -0.796261 -0.580645 9 51 40
-0.65964 -0.128834 3.76299 -0.237588 -0.77917 -0.58004 47 96 90
-0.650036 -0.127342 3.76196 0.182941 -0.830384 -0.526303 90 143 147
-0.637522 -0.125909 3.75828 0.297015 -0.79389 -0.530585 100 155 162
-0.629511 -0.124262 3.75071 -0.329464 -0.650849 -0.683995 90 145 150
-0.622055 -0.128822 3.75678 -0.206451 -0.640105 -0.740029 93 145 149
-0.611186 -0.131635 3.76225 -0.379601 -0.547626 -0.74566 100 150 155
-0.604186 -0.129843 3.7596 -0.418665 -0.576093 -0.702023 87 137 145
-0.599781 -0.128323 3.75708 -0.548273 0.404765 -0.731821 96 146 155
-0.591626 -0.127251 3.75404 -0.528351 0.13977 -0.837442 91 139 151
-0.543424 -0.131417 3.74432 -0.00311055 0.366262 -0.930507 91 135 149
-0.536553 -0.131356 3.74129 -0.00968465 0.364684 -0.931081 85 130 144
-0.529636 -0.131311 3.73904 0.526045 0.441076 -0.727137 84 130 143
-0.525197 -0.127695 3.74744 0.817056 -0.095526 -0.56859 83 130 143
-0.518338 -0.127808 3.75333 0.0958387 -0.235977 -0.967021 89 137 146
-0.497679 -0.130575 3.76436 0.223796 -0.806953 -0.546573 90 142 148
-0.47911 -0.128314 3.76188 -0.0496989 -0.64334 -0.763966 93 144 151
-0.470161 -0.132451 3.76764 0.374202 -0.62575 -0.684404 99 153 158
-0.460776 -0.129439 3.76867 -0.0398433 -0.775128 -0.630547 56 116 111
-0.451372 -0.133198 3.77441 -0.173976 -0.783766 -0.59619 9 63 54
-0.442002 -0.13037 3.77093 -0.0597947 -0.792913 -0.606394 78 144 130
-0.432356 -0.134297 3.77604 0.0555492 -0.813365 -0.579095 24 85 71
-0.422824 -0.131226 3.77226 0.0566422 -0.803709 -0.59232 68 132 117
-0.412669 -0.134176 3.77645 -0.0213132 -0.785341 -0.618696 41 107 89
-0.40314 -0.130707 3.77216 0.00301462 -0.779303 -0.626641 81 146 129
-0.39367 -0.134149 3.77699 0.0133089 -0.770785 -0.636956 33 92 78
-0.382342 -0.13709 3.78112 0.00970042 -0.804772 -0.593505 33 97 81
-0.372295 -0.133539 3.77607 0.011718 -0.798728 -0.601578 34 99 83
-0.370932 -0.132141 3.77432 0.00468283 -0.799823 -0.600218 27 90 75
-0.360918 -0.13581 3.77937 -0.026865 -0.793488 -0.607993 40 105 89
-0.350837 -0.132553 3.77568 0.049211 -0.764047 -0.643281 33 98 84
-0.340143 -0.134804 3.77931 0.0367533 -0.771437 -0.635243 38 104 90
-0.334876 -0.134777 3.77952 -0.00244465 -0.799294 -0.600935 72 140 126
-0.324741 -0.138224 3.78415 0.00409921 -0.805109 -0.593113 19 83 68
-0.310437 -0.135527 3.78096 0.0674166 -0.790436 -0.608823 75 142 128
-0.300571 -0.138255 3.78515 0.0981313 -0.796712 -0.59634 18 81 68
-0.290558 -0.133807 3.78036 0.112411 -0.79816 -0.591866 78 141 128
-0.280879 -0.136557 3.78513 0.0871029 -0.785169 -0.613125 29 88 77
-0.270917 -0.139409 3.79096 0.0860013 -0.792634 -0.603601 66 130 117
-0.261475 -0.136162 3.78575 0.041862 -0.815522 -0.57721 28 92 77
-0.250988 -0.139335 3.79061 0.013481 -0.827571 -0.561199 79 143 128
-0.242557 -0.135233 3.78559 0.0642766 -0.81903 -0.57014 30 94 77
-0.242614 -0.135283 3.78542 0.0305517 -0.812169 -0.582622 30 94 77
-0.231979 -0.138183 3.79042 0.0492715 -0.824394 -0.563868 50 116 100
-0.229557 -0.138964 3.79213 -0.00448743 -0.815687 -0.578476 76 142 126
-0.219015 -0.142511 3.79745 0.0184217 -0.817723 -0.575318 36 101 89
-0.208782 -0.1387 3.79286 -0.00778969 -0.765346 -0.643572 64 132 116
-0.208657 -0.138681 3.79286 0.0110483 -0.771667 -0.63593 65 134 118
-0.198943 -0.142039 3.7976 0.12502 -0.768043 -0.628076 31 95 79
-0.189609 -0.137848 3.79383 0.0582896 -0.772579 -0.632237 70 134 118
-0.18002 -0.140946 3.79885 0.0726549 -0.775186 -0.627541 29 89 74
-0.168991 -0.143021 3.80431 0.0955531 -0.79746 -0.595758 29 89 74
-0.148007 -0.140946 3.8043 0.103574 -0.807311 -0.580965 21 75 62
-0.133704 -0.142829 3.80864 0.0228781 -0.819402 -0.572763 33 91 78
-0.123202 -0.1394 3.80569 0.0142281 -0.805588 -0.592306 59 127 111
-0.112513 -0.143014 3.81198 0.0686873 -0.813793 -0.577082 33 96 82
-0.101808 -0.145999 3.81738 0.101221 -0.824655 -0.556506 47 115 99
-0.0910028 -0.146108 3.82044 0.116595 -0.789208 -0.602956 31 99 83
-0.0808962 -0.141475 3.81599 0.121759 -0.782439 -0.610708 69 140 121
-0.0704051 -0.143591 3.81992 0.147968 -0.812564 -0.563778 7 66 51
-0.0600792 -0.146644 3.82705 0.131506 -0.820116 -0.55688 70 135 122
-0.0491625 -0.141713 3.82389 0.165097 -0.795839 -0.582566 18 82 69
-0.0383913 -0.143983 3.83007 0.0921805 -0.796623 -0.597406 62 132 114
-0.0278697 -0.146862 3.83595 0.107453 -0.810416 -0.575916 29 92 76
-0.00643805 -0.145147 3.83957 0.200852 -0.745216 -0.635855 23 87 69
0.00357562 -0.147319 3.84559 0.173911 -0.782425 -0.597969 55 124 105
0.0163657 -0.14739 3.84976 0.164425 -0.783912 -0.598704 17 81 66
0.0270656 -0.14985 3.85484 0.215692 -0.775621 -0.593203 67 133 120
