ply
format ascii 1.0
element vertex 85
property float x
property float y
property float z
property uchar diffuse_red
property uchar diffuse_green
property uchar diffuse_blue
end_header
1.55625 -0.0284912 -1.24518 0 255 0
2.24448 0.0126632 -0.899514 0 255 0
1.35278 -0.0730055 -1.3958 0 255 0
1.16401 -0.111943 -1.54206 0 255 0
1.89273 0.0107643 -1.0555 255 0 255
2.55133 -0.0164825 -0.825966 0 255 0
2.80208 -0.0161499 -0.792513 0 255 0
3.02049 -0.0152902 -0.767915 255 0 255
3.5879 0.00897674 -0.73239 0 255 0
3.83204 0.0130811 -0.779269 0 255 0
4.00695 0.038025 -0.821234 255 0 255
4.23577 0.0460797 -0.896644 255 0 255
4.76705 0.0841751 -1.23611 0 255 0
4.97839 0.0462235 -1.45586 255 0 255
5.19622 0.0100672 -1.74104 255 0 255
5.36097 0.00435305 -1.96535 255 0 255
5.54833 0.0203708 -2.14226 0 255 0
5.7406 7.14273e-008 -2.34756 255 0 255
5.89589 -0.0533278 -2.56241 0 255 0
6.03561 -0.105717 -2.81677 0 255 0
6.11874 -0.0800675 -3.0632 255 0 255
6.11121 -0.0351556 -3.29875 0 255 0
6.02574 -0.00636076 -3.59181 0 255 0
5.95252 -0.0273871 -3.84666 0 255 0
5.9005 -0.0241173 -4.00265 0 255 0
5.89124 9.80061e-009 -4.10287 0 255 0
5.92416 -0.00364445 -4.27932 0 255 0
5.95647 -0.0233289 -4.53555 0 255 0
5.99735 -0.0429267 -4.80225 0 255 0
6.01401 -0.028796 -5.06773 255 0 255
6.0199 -0.0137296 -5.25402 0 255 0
5.92462 0.0110858 -5.4447 0 255 0
5.77227 0.028963 -5.63893 0 255 0
4.50022 0.0723863 -1.05326 255 0 255
5.41448 0.0027929 -5.99096 0 255 0
5.25064 0.0113262 -6.15687 255 0 255
5.11474 -0.0123759 -6.2421 255 0 255
4.95518 -0.00160384 -6.29564 0 255 0
4.77051 0.0117066 -6.40041 0 255 0
5.59287 0.0345207 -5.8054 0 255 0
3.29368 0.00196468 -0.754843 255 0 255
4.38788 0.0332877 -6.71602 255 0 255
4.23603 0.0482134 -6.88406 0 255 0
4.0743 0.0932924 -6.97914 255 0 255
3.8585 0.130115 -6.99002 0 255 0
3.55608 0.136652 -6.96001 255 0 255
0.930304 -0.059854 -1.74688 255 0 255
0.741138 -0.0342628 -2.01276 255 0 255
0.588854 0.0168556 -2.28216 255 0 255
0.514537 0.0129449 -2.41166 255 0 255
0.391785 -8.4049e-009 -2.54335 255 0 255
0.216179 -0.00176263 -2.74594 0 255 0
-0.0815098 0.0628291 -3.36642 255 0 255
-0.157922 0.0358819 -3.68211 255 0 255
-0.162061 -0.00184343 -3.97932 0 255 0
-0.115572 -0.00922666 -4.2523 0 255 0
0.186687 0.0767925 -5.01568 0 255 0
0.305994 0.0737758 -5.27521 255 0 255
0.439685 0.0721489 -5.49271 255 0 255
0.534264 0.0626291 -5.71462 0 255 0
0.680992 0.0723462 -5.98074 0 255 0
0.777153 0.037807 -6.29693 0 255 0
0.939298 0.0176071 -6.58994 0 255 0
1.12985 -0.0326601 -6.8509 0 255 0
0.00205545 0.0144771 -4.60202 255 0 255
1.29439 -0.0667907 -7.0083 0 255 0
0.053122 0.0555881 -3.05012 255 0 255
1.53411 -0.0722904 -7.18031 255 0 255
4.59352 0.0267787 -6.55355 255 0 255
3.28643 0.155285 -6.95347 255 0 255
1.75706 -0.0809883 -7.29661 255 0 255
2.07918 -0.0632728 -7.3835 255 0 255
2.46039 -0.0170797 -7.45249 0 255 0
2.69597 -0.00258691 -7.52422 255 0 255
2.90603 0.0260583 -7.60285 255 0 255
3.15656 0.0220906 -7.71632 0 255 0
3.79525 -0.0384629 -7.88991 0 255 0
4.08655 -0.15882 -7.92086 0 255 0
4.30501 -0.237687 -7.944 0 255 0
4.44797 -0.298617 -7.9124 0 255 0
4.51413 -0.355691 -7.86241 0 255 0
4.53564 -0.420336 -7.86639 0 255 0
4.53018 -0.440797 -7.86072 255 0 255
4.5383 -0.441991 -7.87084 255 0 255
3.44505 -0.00949289 -7.82811 255 0 255
